# .PCD v0.7 - Point Cloud Data file format
VERSION 0.7
FIELDS x y z
SIZE 4 4 4
TYPE F F F
COUNT 1 1 1
WIDTH 1384
HEIGHT 1
VIEWPOINT 0 0 0 1 0 0 0
POINTS 1384
DATA ascii
-0.23295739 0.16072856 0.35480586
-0.23110881 0.16111208 0.35468712
-0.22894545 0.16105467 0.35443085
-0.22690308 0.16077176 0.35424343
-0.22546485 0.16144867 0.35408717
-0.15453388 0.16010562 0.35408717
-0.15301591 0.16056947 0.3540872
-0.15119851 0.1607286 0.35408717
-0.14895943 0.16093875 0.35413712
-0.14705595 0.16092807 0.35421216
-0.14500314 0.16084538 0.35433713
-0.14296681 0.16077927 0.35449338
-0.1409748 0.16115917 0.35468432
-0.13899246 0.16115275 0.35496208
-0.13699082 0.1611235 0.35518426
-0.13499667 0.16110273 0.35542035
-0.13298942 0.16106541 0.35561478
-0.13096415 0.16100509 0.35575363
-0.1289221 0.16092199 0.35583699
-0.12693687 0.16096731 0.35581198
-0.12480587 0.1611038 0.35581613
-0.12294134 0.16120504 0.35596195
-0.1215848 0.16141364 0.35596198
-0.24069238 0.16289005 0.35596198
-0.23882785 0.16283241 0.35563698
-0.23667799 0.16329296 0.35542035
-0.23511691 0.16269855 0.35508707
-0.23319824 0.16286273 0.35496205
-0.23132306 0.1632272 0.35480583
-0.22920659 0.16289449 0.35452461
-0.22704685 0.16283289 0.35426217
-0.2256124 0.16279253 0.35408717
-0.14708886 0.162157 0.35408717
-0.14493325 0.16265361 0.35415861
-0.14302386 0.16283052 0.35429549
-0.14103776 0.16321813 0.35450378
-0.13906357 0.1632223 0.35480586
-0.13706715 0.16320018 0.35504544
-0.13505703 0.16316111 0.35524333
-0.13304977 0.1631245 0.35544118
-0.13100263 0.16303743 0.35552451
-0.12892936 0.16291475 0.35552451
-0.1268716 0.16280855 0.35555577
-0.12485161 0.16314466 0.35561478
-0.12283161 0.16308261 0.35573283
-0.12093971 0.16315748 0.35589948
-0.11925334 0.16383725 0.35596198
-0.23937114 0.164093 0.35596198
-0.23694488 0.16510333 0.35577449
-0.23459597 0.16492669 0.35528705
-0.23268503 0.16526875 0.35508707
-0.23075855 0.16511248 0.35483709
-0.22919415 0.16489671 0.35452461
-0.22748068 0.16501218 0.35426217
-0.14294626 0.16474757 0.35412884
-0.14108096 0.1648583 0.35433713
-0.13910992 0.16486695 0.3546496
-0.13710842 0.16483934 0.35487875
-0.13510124 0.16480431 0.35508707
-0.13298674 0.16505589 0.35522765
-0.13104321 0.16507377 0.35529539
-0.128984 0.1649684 0.35533702
-0.12691382 0.1648459 0.35533705
-0.12487951 0.16516346 0.35535789
-0.12286472 0.16510826 0.35549325
-0.12088126 0.16509414 0.35571197
-0.11889943 0.1650821 0.35593075
-0.11770029 0.16545691 0.35596198
-0.23679261 0.16695827 0.35596198
-0.23504308 0.16701788 0.35546201
-0.23293659 0.16711253 0.35514957
-0.23078777 0.16675496 0.35483709
-0.22869301 0.16726108 0.35443091
-0.22677588 0.16709946 0.35417047
-0.14104585 0.16682211 0.35418087
-0.1391729 0.16693039 0.35446212
-0.13716197 0.16689219 0.35467041
-0.13514566 0.16684638 0.35485792
-0.13323501 0.16701722 0.35496208
-0.13105871 0.16707945 0.35499334
-0.12899505 0.16696733 0.35502458
-0.12694652 0.16687226 0.35508707
-0.12492424 0.16680908 0.35521209
-0.12301886 0.16703364 0.35538703
-0.12084021 0.16705661 0.35557139
-0.11895854 0.16675025 0.35583699
-0.11725067 0.1674155 0.35594115
-0.11537242 0.16789238 0.35596198
-0.23608072 0.16913283 0.35596198
-0.23498169 0.16914883 0.35574323
-0.23311979 0.16887157 0.35537872
-0.23103067 0.16890408 0.35498708
-0.22892237 0.16908899 0.35446215
-0.22679162 0.16873088 0.35414967
-0.14044669 0.16902275 0.35414967
-0.1388353 0.16899014 0.35431635
-0.13681127 0.16893634 0.35449338
-0.13517605 0.16887233 0.35458711
-0.13302411 0.16896716 0.35469422
-0.13108402 0.16909821 0.3547121
-0.12903333 0.16900253 0.35478154
-0.12699629 0.16892229 0.35487875
-0.12499721 0.16889095 0.35507315
-0.1229255 0.16902621 0.35526207
-0.1211429 0.16909568 0.3554799
-0.11903863 0.16884656 0.3557328
-0.11704067 0.16921075 0.35583699
-0.11502919 0.16915751 0.35596198
-0.11319637 0.16927266 0.35596198
-0.23477829 0.17118277 0.35580575
-0.23258749 0.17121081 0.35536826
-0.23126638 0.17094909 0.35508704
-0.22913438 0.17090739 0.35446212
-0.22705364 0.17099936 0.35414967
-0.13879865 0.17095727 0.35414967
-0.13687287 0.17100255 0.35429549
-0.13504457 0.17090908 0.35435501
-0.13315879 0.17092577 0.35439071
-0.13111116 0.17112029 0.35443088
-0.1290836 0.17105468 0.35456625
-0.12706284 0.17099649 0.3547121
-0.12507448 0.17098092 0.35494125
-0.12309158 0.17097254 0.3551808
-0.12111052 0.17096667 0.35542035
-0.11911692 0.17094284 0.35561824
-0.11710496 0.17089145 0.35575366
-0.11507858 0.17081732 0.35583699
-0.11295806 0.17104523 0.3558839
-0.11104401 0.17108613 0.35596201
-0.10957395 0.17158003 0.35596195
-0.25305012 0.17317437 0.35546201
-0.23475532 0.1728007 0.35571203
-0.23274499 0.17299691 0.35527456
-0.23082542 0.17325413 0.35496208
-0.22895221 0.17295098 0.35455588
-0.22723438 0.17317688 0.35429549
-0.22555643 0.17322131 0.35412884
-0.13648565 0.17260593 0.35408717
-0.13523148 0.17252228 0.35408717
-0.13297386 0.17261821 0.35414964
-0.13111362 0.17271312 0.35414967
-0.12910573 0.17307074 0.35426775
-0.1271165 0.17305537 0.35450375
-0.12514406 0.17306292 0.35478151
-0.12316815 0.17306578 0.35504541
-0.1211748 0.17304413 0.3552537
-0.11918327 0.17302465 0.35546204
-0.11717094 0.17297384 0.35560089
-0.11514533 0.1729017 0.35569116
-0.11324215 0.17306837 0.3557477
-0.11112422 0.17319374 0.35586825
-0.1092761 0.17322497 0.35596198
-0.23477852 0.17441837 0.35596198
-0.23337984 0.17476059 0.35571203
-0.23108844 0.17508635 0.35530579
-0.22899163 0.17478579 0.35479543
-0.22680978 0.17517972 0.35452461
-0.22470225 0.17482558 0.3542434
-0.22278935 0.17544776 0.35408717
-0.12862496 0.17498867 0.35412884
-0.12694338 0.17521024 0.35433716
-0.12503242 0.17503551 0.35458711
-0.12298682 0.17521206 0.35486209
-0.12106214 0.17501733 0.35506207
-0.11882877 0.1750716 0.35527456
-0.11682133 0.17502865 0.35543078
-0.11519691 0.17496526 0.35549325
-0.11318099 0.17490619 0.35560784
-0.11117413 0.17485961 0.35574323
-0.10916976 0.17481548 0.35587862
-0.10756029 0.1747694 0.35596198
-0.10599151 0.17597978 0.35596198
-0.23077978 0.17718905 0.35571203
-0.22878142 0.17678505 0.35511833
-0.22704811 0.17699738 0.35483709
-0.22517532 0.17685702 0.3546496
-0.22308725 0.17692766 0.35430589
-0.22161858 0.17757221 0.35408717
-0.12684053 0.17679812 0.354233
-0.12485963 0.17679651 0.35449338
-0.12286601 0.17677675 0.35471213
-0.12088159 0.17716779 0.35487875
-0.11886957 0.17711979 0.35503149
-0.11686224 0.17707758 0.35519123
-0.11484398 0.17701712 0.35530928
-0.1128327 0.17696585 0.35544118
-0.11081983 0.17691021 0.35555923
-0.10881992 0.17687412 0.35571197
-0.10693561 0.17696351 0.35588387
-0.10497456 0.17736548 0.35596195
-0.10362919 0.17758335 0.35596198
0.26322854 0.17722471 0.35421216
0.26504239 0.17709276 0.35502458
0.26656434 0.17775868 0.35446212
-0.23035878 0.17840746 0.35583699
-0.22884703 0.17903775 0.35558701
-0.2267196 0.17908739 0.35521203
-0.22472636 0.17884958 0.35483709
-0.22332017 0.17888463 0.35458711
-0.22158284 0.17914748 0.35425386
-0.12643084 0.17872036 0.35413712
-0.12492115 0.17887338 0.35429549
-0.12292254 0.17884763 0.35450378
-0.12091936 0.1792122 0.35461837
-0.11890749 0.17916493 0.35477459
-0.11689799 0.17912 0.35493082
-0.11488437 0.17906709 0.35506621
-0.11286654 0.17900605 0.3551808
-0.11085812 0.178958 0.35531619
-0.10886471 0.17893322 0.35549325
-0.10687333 0.17891093 0.35567033
-0.1048712 0.17886987 0.35580572
-0.10287141 0.17883132 0.35594115
-0.10126868 0.17919156 0.35596198
0.25753841 0.1799347 0.35583699
0.2594806 0.17925607 0.35583699
0.26088169 0.17911705 0.35551205
-0.22929402 0.1810625 0.35593075
-0.22716227 0.18110885 0.35555577
-0.22487836 0.18092564 0.35511208
-0.22283137 0.18112543 0.3546496
-0.22063774 0.1806837 0.35421216
-0.2192876 0.1818358 0.35408717
-0.12484834 0.18081629 0.35412884
-0.12295929 0.18089114 0.354233
-0.1209475 0.18084563 0.35439962
-0.11891944 0.18117197 0.35443434
-0.11691514 0.18113489 0.35460794
-0.11491323 0.18110043 0.35478151
-0.11290892 0.18106122 0.35494125
-0.11089402 0.18100332 0.35505927
-0.10890492 0.18098657 0.35525373
-0.1069093 0.18095833 0.35542038
-0.10491552 0.18093218 0.35558701
-0.10292355 0.18090867 0.35575363
-0.10093918 0.18089795 0.35594118
-0.099479757 0.18141186 0.35596195
0.25531772 0.18117885 0.35579529
0.25699425 0.18112642 0.35552451
0.25905412 0.1808431 0.35504019
0.26019785 0.18001865 0.35521206
-0.22875191 0.18341748 0.35587868
-0.22720079 0.18278365 0.35554537
-0.22530429 0.18303901 0.3552433
-0.22322974 0.18311679 0.35493085
-0.22103149 0.18266964 0.35449338
-0.21907011 0.18324366 0.3542434
-0.12259535 0.18213335 0.35414967
-0.12096617 0.18246558 0.35414967
-0.11878576 0.18311946 0.35416216
-0.1169306 0.18314773 0.35427469
-0.11493254 0.18311958 0.35446212
-0.11292645 0.18307753 0.35461837
-0.11092281 0.18303825 0.35477459
-0.10893078 0.18301734 0.35496208
-0.10694072 0.182999 0.3551496
-0.1049521 0.18298288 0.35533705
-0.10297126 0.18298005 0.35554537
-0.10098867 0.18297406 0.35574323
-0.099007465 0.18297054 0.35594118
-0.097406 0.18333434 0.35596198
0.2519277 0.1838031 0.355712
0.25332242 0.18315461 0.35551199
0.25505194 0.18307418 0.35523286
0.25690046 0.18276182 0.35502458
0.25846523 0.1829876 0.35441214
-0.22859216 0.18491 0.35583699
-0.22666191 0.18514064 0.35549325
-0.22491913 0.18503775 0.35531205
-0.2227143 0.18506874 0.35500374
-0.22097559 0.18483996 0.35477459
-0.21924722 0.18503194 0.35446215
-0.21753651 0.18502617 0.35421216
-0.11694487 0.18436362 0.35408717
-0.11495616 0.1849191 0.35419431
-0.11296583 0.1851306 0.35435799
-0.11095786 0.18508488 0.35450378
-0.10896489 0.18506326 0.35469127
-0.10698225 0.18505868 0.35490653
-0.10497826 0.18501659 0.35504544
-0.10300867 0.18503505 0.35529539
-0.10104581 0.18506645 0.35556617
-0.099071868 0.18507873 0.35579532
-0.097488694 0.18508144 0.35596195
0.25145873 0.18504339 0.35549328
0.25315595 0.1850495 0.35499334
0.25501403 0.18517238 0.3547121
0.25692323 0.18490529 0.35458711
0.25827497 0.18539059 0.35421216
-0.2285407 0.18649256 0.35596198
-0.22721016 0.1868728 0.35579529
-0.22506586 0.1872903 0.35558701
-0.2229116 0.18687986 0.35524333
-0.22086352 0.18697019 0.35496208
-0.21880554 0.18704571 0.3546496
-0.21659327 0.1868868 0.35426217
-0.21536057 0.18781731 0.35421216
-0.11420293 0.18600565 0.35421216
0.25094354 0.18709812 0.35501763
0.25308487 0.18712084 0.35442045
0.25512964 0.18695745 0.35449335
0.25717741 0.1872174 0.35446212
0.25850812 0.18726176 0.35414967
-0.2268218 0.1881299 0.35596198
-0.22527514 0.18911779 0.35583699
-0.2232784 0.18886156 0.35546201
-0.2212463 0.18896571 0.35521206
-0.21916528 0.18902156 0.35486835
-0.21711266 0.18909539 0.35455588
-0.21505061 0.18915397 0.35421216
0.24922428 0.18894336 0.35506207
0.25513405 0.18823642 0.35421216
0.25677699 0.18851168 0.35433716
-0.22473875 0.19106995 0.35586825
-0.22280097 0.19086017 0.35558701
-0.22090192 0.19100913 0.35533705
-0.21896991 0.19088119 0.35496208
-0.21745303 0.19105981 0.35474333
-0.21534964 0.19108149 0.35433716
0.24825583 0.19138858 0.35496211
-0.22454801 0.1929436 0.35596198
-0.22287127 0.1929011 0.355712
-0.22089903 0.19314924 0.35536829
-0.21877712 0.19274691 0.35505584
-0.21679932 0.19330113 0.35477459
-0.2147737 0.19298689 0.35429549
-0.21393688 0.19217592 0.35408717
0.24772613 0.19310491 0.35546198
-0.22478807 0.19483232 0.35596198
-0.22326943 0.19502179 0.35577446
-0.22117372 0.19506681 0.35543078
-0.21895237 0.19489947 0.35506207
-0.21706845 0.19521256 0.35483709
-0.2148868 0.19474125 0.35439962
0.24567185 0.19525076 0.35596198
0.24730195 0.19501087 0.35521206
-0.22503132 0.19672745 0.35596198
-0.22361968 0.19660777 0.35575366
-0.22141087 0.19653526 0.35552451
-0.21976486 0.19618355 0.35521206
0.24357772 0.19742614 0.35583699
0.24509233 0.19682862 0.35546204
0.24660602 0.19692357 0.35481209
0.24127905 0.19937858 0.35596198
0.24293934 0.19892637 0.35552451
0.24500765 0.19888803 0.35483709
0.24641979 0.19863419 0.35421216
-0.25520968 -0.14374323 0.35646191
-0.25699651 -0.12340305 0.35771179
-0.25501594 -0.12202553 0.35646191
-0.25671893 -0.098973542 0.35739931
-0.25603175 -0.097792059 0.35796174
-0.2559396 -0.096519776 0.35796174
-0.25636581 -0.094719611 0.35733682
-0.25581881 -0.094825432 0.35796174
-0.2565158 -0.093127027 0.35771179
-0.25507879 -0.070888817 0.3575868
-0.25445929 -0.069081306 0.35683689
-0.25457919 -0.067068852 0.35714933
-0.25492141 -0.06478674 0.35719398
-0.25578809 -0.063481584 0.35771179
-0.25648215 -0.058943354 0.3575868
-0.25645542 -0.05688991 0.35767016
-0.25567925 -0.056902543 0.35796174
-0.25631249 -0.054812096 0.3575868
-0.25559655 -0.054837108 0.35796174
-0.25617468 -0.053555537 0.35746181
-0.25548837 -0.053176895 0.35789925
-0.25547156 -0.050881658 0.35764927
-0.25549504 -0.049005773 0.35743058
-0.25620723 -0.047016837 0.35783678
-0.25587684 -0.047773372 0.35733682
-0.25387955 -0.040707562 0.35689938
-0.25387973 -0.039142706 0.3576493
-0.045581207 -0.038471702 0.35677439
-0.2540819 -0.036603138 0.3566494
-0.040675998 -0.036210641 0.35696188
-0.25381178 -0.034644876 0.35771179
-0.039538257 -0.035075173 0.35696188
-0.25362733 -0.032989252 0.3575035
-0.036519926 -0.032438409 0.35708684
-0.25306696 -0.030882623 0.35677439
-0.03620461 -0.031738553 0.35771179
-0.035079069 -0.030613434 0.35783678
-0.25269911 -0.029081501 0.35733682
-0.053300485 -0.028011151 0.35789925
-0.050645579 -0.028009517 0.35796174
-0.033568405 -0.02910454 0.35789925
-0.25270277 -0.02705493 0.35691187
-0.058159161 -0.026467511 0.35733682
-0.056459878 -0.027134117 0.35621193
-0.054300353 -0.02794067 0.35696188
-0.032311406 -0.027114129 0.3565869
-0.031633954 -0.026425155 0.35746181
-0.25444448 -0.024533125 0.35704517
-0.25325686 -0.024938704 0.3575868
-0.25183955 -0.024010619 0.35796174
-0.060545318 -0.024246672 0.35796174
-0.059382215 -0.025371306 0.35783678
-0.25643459 -0.023151213 0.35621193
-0.25525954 -0.023086643 0.35713372
-0.25314918 -0.02279165 0.35777429
-0.25182217 -0.02278664 0.35796174
-0.062048014 -0.022726966 0.35783678
-0.061285954 -0.023482624 0.35783678
-0.25668144 -0.021544063 0.3565869
-0.25493664 -0.021228656 0.35716182
-0.2531054 -0.021157544 0.35774302
-0.2518059 -0.021562885 0.35796174
-0.064246118 -0.020430865 0.35733682
-0.063180476 -0.02158973 0.35777426
-0.02555168 -0.020358747 0.35696188
-0.25417513 -0.019918429 0.35721183
-0.25335577 -0.019106654 0.35744396
-0.065296426 -0.018516373 0.35683686
-0.025586933 -0.019633699 0.35746181
-0.25455746 -0.016937627 0.35733685
-0.25370592 -0.017501261 0.35796174
-0.066484906 -0.016640997 0.35708684
-0.026321445 -0.016984582 0.35721183
-0.25665951 -0.015431317 0.3566494
-0.25509274 -0.015141903 0.35736805
-0.066877179 -0.015888382 0.35714936
-0.026366916 -0.015883533 0.35783678
-0.25420082 -0.012995173 0.35733682
-0.25358093 -0.013008112 0.35783678
-0.066422239 -0.01247314 0.35677439
-0.027759515 -0.01206266 0.35633692
-0.25667027 -0.010135328 0.35671189
-0.25483856 -0.010688323 0.35733679
-0.25359914 -0.010970083 0.35787845
-0.066409841 -0.011338473 0.35671189
-0.02777387 -0.010941939 0.35652441
-0.25637802 -0.0089184102 0.35699311
-0.25493592 -0.0089308796 0.35771176
-0.065253094 -0.0094486531 0.3566494
-0.028641406 -0.0091003142 0.35796174
-0.02784672 -0.0098408358 0.35746181
-0.25684184 -0.0076957047 0.35696188
-0.25499025 -0.007160401 0.35756597
-0.064278871 -0.0068262536 0.35758677
-0.030027019 -0.0071843518 0.35646191
-0.25421843 -0.0048470232 0.35739931
-0.25364292 -0.004854477 0.35796174
-0.063449174 -0.0045521953 0.35721183
-0.030899119 -0.0045719491 0.35783678
-0.25477239 -0.0030105084 0.35714936
-0.25364333 -0.0036309015 0.35796174
-0.060464162 -0.0030461883 0.3575868
-0.059660472 -0.0022890472 0.35733682
-0.031585585 -0.0030568999 0.35704517
-0.25684085 -0.0019871069 0.35696188
-0.2549659 -0.0011765023 0.35707295
-0.25361827 -0.0011836415 0.35792008
-0.058878753 -0.0015336297 0.35721183
-0.031534597 -0.0015484996 0.35646191
-0.25471687 0.00094121398 0.35698685
-0.25347769 0.00085519772 0.35771179
-0.25650081 0.0029024829 0.35646191
-0.25499368 0.0028979597 0.35708684
-0.25310466 0.0028922819 0.35785758
-0.033160776 0.0037268898 0.35771179
-0.25651437 0.0049390644 0.35646191
-0.25499228 0.0049352013 0.35706601
-0.25310323 0.004930736 0.35783678
-0.037702888 0.0059955879 0.35771179
-0.035320047 0.0052217511 0.3565869
-0.033894032 0.0044789449 0.35746181
-0.25625426 0.0061547002 0.35608697
-0.25478935 0.0068674367 0.35693061
-0.25338376 0.0067682546 0.35786802
-0.043705672 0.0075037293 0.35721183
-0.25415742 0.0090063112 0.35721183
-0.25362659 0.0090134535 0.35783678
-0.065713912 0.0090535479 0.35696188
-0.049877748 0.0090426235 0.35796174
-0.25438225 0.011248966 0.35714936
-0.25368908 0.010647813 0.35789925
-0.24409924 0.011773524 0.35796174
-0.2426267 0.011756798 0.35789925
-0.24092306 0.011470967 0.35796174
-0.062012766 0.010573925 0.3575868
-0.25535929 0.01301456 0.35718682
-0.24469335 0.012860015 0.35787845
-0.24296981 0.012970691 0.35768056
-0.24090071 0.013029802 0.35771179
-0.23902093 0.013069182 0.35792008
-0.25626057 0.015288306 0.35648689
-0.25542718 0.015148573 0.35751182
-0.24482009 0.015230761 0.35789928
-0.24338052 0.01484065 0.35768682
-0.24105154 0.014972021 0.35761461
-0.23874985 0.01494733 0.35771179
-0.23709333 0.015095835 0.35791177
-0.23563085 0.015726415 0.35796174
-0.25603822 0.016770741 0.35696188
-0.2550692 0.017257059 0.35723683
-0.25382674 0.01718571 0.35796174
-0.24641059 0.017218456 0.35796174
-0.24463031 0.017057396 0.35793051
-0.24257293 0.017021123 0.35771179
-0.24065162 0.016994152 0.35768056
-0.23871709 0.016965892 0.35761803
-0.23691472 0.016946884 0.35774302
-0.23515925 0.016931102 0.35793051
-0.25464475 0.018385652 0.35702437
-0.25340158 0.019194514 0.35731182
-0.24854261 0.019963736 0.35796174
-0.24660294 0.019119749 0.35796174
-0.24468572 0.019091181 0.35796174
-0.24267727 0.019055227 0.35781595
-0.24073394 0.019024054 0.35775343
-0.23879872 0.018993119 0.35769096
-0.23689894 0.018964769 0.35767016
-0.23515713 0.018948829 0.35787842
-0.25260398 0.020960774 0.35696188
-0.25131524 0.020970207 0.35761181
-0.24910411 0.021267368 0.35776177
-0.24689278 0.021075571 0.35791177
-0.24472263 0.021124339 0.35796174
-0.24274909 0.021088207 0.35786802
-0.24082604 0.021056056 0.35783678
-0.23891082 0.021024335 0.35780555
-0.23708597 0.021000309 0.35789925
-0.2354008 0.020842336 0.35796174
-0.25254029 0.022821104 0.35668063
-0.25099695 0.022822663 0.35724306
-0.24925917 0.022806749 0.35752431
-0.2469209 0.023085257 0.3577899
-0.24476278 0.023158526 0.35796174
-0.24285229 0.023125464 0.35796174
-0.24094938 0.023092801 0.35796174
-0.23905385 0.023060521 0.35796174
-0.23739728 0.022830132 0.35796174
-0.23275976 0.023116579 0.35796174
-0.23077793 0.023460412 0.35796174
-0.25281939 0.024955824 0.35649318
-0.25088757 0.02484707 0.35702434
-0.24917215 0.024832487 0.35733685
-0.24715413 0.025047692 0.35769394
-0.24480575 0.025193673 0.35796174
-0.24289475 0.025158199 0.35796174
-0.24099132 0.025123149 0.35796174
-0.23909533 0.025088511 0.35796174
-0.23736654 0.025192171 0.35796174
-0.2325161 0.024970517 0.35796174
-0.23065211 0.024937708 0.35796174
-0.25302348 0.026899861 0.35654524
-0.2510446 0.026898449 0.3571806
-0.24907079 0.026962016 0.35753679
-0.24687584 0.026765887 0.35771179
-0.2447996 0.02681794 0.35789928
-0.24284127 0.027027423 0.35796174
-0.24103646 0.027154675 0.35796174
-0.23913991 0.027117679 0.35796174
-0.2372507 0.027081126 0.35796174
-0.23536865 0.027045017 0.35796174
-0.23291177 0.027099457 0.35796171
-0.23069431 0.02695662 0.35796174
-0.22907269 0.027127985 0.35796174
-0.25468531 0.028990077 0.35675356
-0.25309035 0.028988063 0.35725346
-0.25129312 0.028962718 0.35746181
-0.24897997 0.028923286 0.35761464
-0.24663846 0.028880062 0.35771179
-0.24473433 0.028841391 0.35773262
-0.24295965 0.028970573 0.3577868
-0.24095811 0.029171944 0.35777429
-0.23906201 0.029132601 0.35777426
-0.2371732 0.029093735 0.35777429
-0.23531207 0.029057907 0.35780555
-0.23303115 0.029018193 0.35789922
-0.23073915 0.028976604 0.35796174
-0.22903238 0.028808316 0.35796174
-0.25463298 0.030902186 0.35683689
-0.25315952 0.031035334 0.35727429
-0.2513248 0.031004349 0.35743058
-0.24897009 0.030957522 0.35752431
-0.24666902 0.030916825 0.35768056
-0.2447716 0.030876797 0.35771179
-0.24283913 0.030831823 0.35768056
-0.24080057 0.031025823 0.35761181
-0.23898715 0.031146675 0.35758683
-0.23712628 0.031109162 0.35762846
-0.23529971 0.03107585 0.35771179
-0.23307514 0.03104138 0.35789227
-0.23087612 0.030838141 0.35796174
-0.22937256 0.030160511 0.35796174
-0.25472939 0.033246934 0.35678691
-0.25318775 0.033078928 0.35723266
-0.25128666 0.033037558 0.35729516
-0.24909559 0.033098277 0.35744619
-0.2468258 0.032832168 0.35753325
-0.24471231 0.032899819 0.35754517
-0.24277295 0.032851323 0.3575035
-0.2409409 0.032968242 0.35746181
-0.23895675 0.033165965 0.35746181
-0.23706836 0.03312245 0.35746181
-0.23488225 0.033091944 0.35771179
-0.2327036 0.03306213 0.35796174
-0.23129262 0.032626003 0.35796174
-0.25507602 0.035160214 0.3570556
-0.25327805 0.035131421 0.35727429
-0.25142008 0.035093874 0.35739928
-0.2489841 0.035030529 0.35737848
-0.24661031 0.034975182 0.35743058
-0.24467011 0.034924414 0.35739931
-0.24273792 0.034874301 0.35736808
-0.24081354 0.03482477 0.35733682
-0.23889704 0.035030041 0.35743681
-0.23715155 0.03515571 0.3575035
-0.23493709 0.035119582 0.35771179
-0.23275763 0.035088327 0.35796174
-0.25488168 0.03702227 0.35683689
-0.25319466 0.037159961 0.35706604
-0.25138101 0.037127111 0.35725346
-0.24924017 0.036954351 0.35726538
-0.24692827 0.037112877 0.35727429
-0.24465965 0.036953185 0.35729516
-0.24273433 0.0369015 0.35727432
-0.24084486 0.036854811 0.35729516
-0.23907599 0.03697573 0.35733682
-0.2372237 0.03718856 0.35752431
-0.23496731 0.037144262 0.35767016
-0.23279393 0.037112605 0.35793051
-0.23142423 0.037486445 0.35796174
-0.25499958 0.038975574 0.35663691
-0.25316602 0.039195757 0.35693061
-0.25137419 0.039164864 0.35714936
-0.24899608 0.039104 0.35721183
-0.24658558 0.03903725 0.35721183
-0.24466634 0.038984615 0.35721183
-0.24275482 0.038932629 0.35721183
-0.24091403 0.038891517 0.35730559
-0.23903802 0.038844142 0.35733682
-0.23723121 0.038807601 0.35746181
-0.23500048 0.039170034 0.35762849
-0.23280616 0.039133579 0.35785761
-0.23099214 0.039094213 0.35794091
-0.2292417 0.039212964 0.35796174
-0.22745924 0.039544702 0.35796174
-0.25475258 0.040826529 0.35633692
-0.25308922 0.040815338 0.35674313
-0.25102314 0.040917803 0.35702434
-0.24892576 0.041246694 0.3571806
-0.24672532 0.04109339 0.35731599
-0.244819 0.041040674 0.35733679
-0.24292015 0.040988628 0.35735765
-0.24104273 0.040939644 0.35739931
-0.23915844 0.040888865 0.35742012
-0.23729505 0.040841032 0.35746181
-0.23499535 0.041189741 0.35752431
-0.232794 0.04115054 0.35774302
-0.23094621 0.041103322 0.35777429
-0.22908488 0.041053172 0.35777429
-0.22726993 0.041010804 0.35783678
-0.22502643 0.040961742 0.35794091
-0.22321025 0.041319903 0.35796174
-0.2542184 0.042028036 0.35621193
-0.25280648 0.042657275 0.3563869
-0.25129741 0.042970773 0.35671189
-0.24900597 0.043177649 0.3570244
-0.2467458 0.043131016 0.35724306
-0.24488899 0.043084703 0.35733682
-0.24299631 0.043031462 0.35736805
-0.241111 0.042978924 0.35739931
-0.23921189 0.04292335 0.35739928
-0.23732018 0.042868465 0.35739928
-0.23486702 0.042976562 0.35744396
-0.2326764 0.043147665 0.35746181
-0.2308225 0.043097112 0.35748264
-0.22896184 0.043044847 0.35748264
-0.22717415 0.04300566 0.35758677
-0.22495311 0.042958658 0.35772568
-0.22277439 0.042919192 0.35792008
-0.2214492 0.043694813 0.35796174
-0.252271 0.044412773 0.35608697
-0.25100586 0.044807673 0.35633692
-0.24879114 0.044962835 0.356819
-0.24675523 0.04516704 0.35714936
-0.24491942 0.045122657 0.35727432
-0.24304752 0.045071196 0.35733679
-0.24114035 0.04501247 0.35733679
-0.23919888 0.044946522 0.35727429
-0.23727928 0.044883978 0.35723266
-0.2353673 0.044822201 0.357191
-0.23302257 0.045156155 0.35717019
-0.23075512 0.045100063 0.35727432
-0.22889479 0.045045476 0.35727429
-0.22712053 0.04500737 0.35739931
-0.22493029 0.044964463 0.35758677
-0.22272778 0.044918589 0.35774302
-0.22101027 0.04489043 0.35793048
-0.2196705 0.045259826 0.35796174
-0.25070211 0.046620611 0.35614944
-0.24921976 0.046807915 0.35644105
-0.24715571 0.047201827 0.35692021
-0.24495284 0.047161844 0.35721183
-0.24303779 0.047099911 0.35721183
-0.24113035 0.047038741 0.35721183
-0.23920956 0.046974182 0.3571806
-0.23719266 0.046889909 0.35699311
-0.2351369 0.047054805 0.35686189
-0.23302014 0.047052398 0.35688379
-0.23085038 0.04721554 0.35699758
-0.22887062 0.047053803 0.3571285
-0.22706985 0.047008645 0.35721183
-0.22491902 0.04697236 0.35746181
-0.22270982 0.046923269 0.3576076
-0.22097944 0.046891317 0.35777429
-0.21921526 0.046851765 0.35787845
-0.21728827 0.047072183 0.35794091
-0.21519943 0.047551893 0.35796174
-0.24880284 0.04883929 0.35642025
-0.24678853 0.048835691 0.35699311
-0.24501616 0.048800893 0.35721183
-0.24311639 0.049146473 0.35721183
-0.2411799 0.049077049 0.35717019
-0.23913972 0.048985567 0.35696185
-0.2371368 0.048900645 0.35679522
-0.23524842 0.048983537 0.35663691
-0.23331593 0.049169824 0.35668063
-0.23105471 0.049110532 0.35679522
-0.22883572 0.049059507 0.35696188
-0.22708131 0.049022563 0.35711807
-0.22488414 0.048974913 0.35729516
-0.22268796 0.048926871 0.35746181
-0.22091237 0.048883736 0.35755554
-0.21914218 0.048841272 0.35764933
-0.21680993 0.049083199 0.35772741
-0.21472466 0.04913494 0.35783675
-0.21296622 0.049093172 0.35792008
-0.21116365 0.049040537 0.35792008
-0.20904008 0.04908086 0.35793048
-0.20687197 0.04945742 0.35796174
-0.20494834 0.049669921 0.35796174
-0.24860737 0.05099709 0.35640833
-0.2468068 0.050874371 0.35689938
-0.24505536 0.050842702 0.35714933
-0.24319792 0.051194932 0.35721183
-0.24120416 0.051110834 0.35708684
-0.23911455 0.051005371 0.35680562
-0.2370975 0.050914168 0.35661817
-0.23515159 0.05083717 0.35652441
-0.23319916 0.051017057 0.35653692
-0.23106784 0.051128156 0.35669798
-0.22885716 0.051077172 0.35687855
-0.22708245 0.051034439 0.35700354
-0.22501001 0.050990976 0.35719621
-0.22285655 0.05093481 0.35730109
-0.22088675 0.050884496 0.35739931
-0.2190845 0.050833132 0.35744095
-0.21740238 0.050950862 0.35751182
-0.21510839 0.05113383 0.35760769
-0.21290962 0.051079519 0.35771179
-0.21110725 0.051024903 0.35771179
-0.20906834 0.050889622 0.35776177
-0.20694037 0.050990332 0.35778674
-0.20495111 0.050865699 0.35789925
-0.20336072 0.050961036 0.35796174
-0.20191656 0.051988095 0.35796174
-0.25069702 0.053378429 0.35608697
-0.24906187 0.052963804 0.35654521
-0.2469362 0.052937083 0.35696188
-0.24514043 0.052895017 0.35714933
-0.24326548 0.052835267 0.35721183
-0.24116898 0.052987266 0.35706183
-0.23910637 0.053028639 0.35667023
-0.23708904 0.052933946 0.35648274
-0.23519091 0.052864928 0.35646191
-0.23341398 0.052965771 0.35646191
-0.23108804 0.053147662 0.35660776
-0.22886787 0.0530928 0.35677439
-0.22711265 0.053053141 0.35693061
-0.22492753 0.053005051 0.3571285
-0.22267826 0.052941091 0.35721183
-0.22084425 0.052880883 0.35721183
-0.21905483 0.052830607 0.35727429
-0.21726036 0.053179059 0.35729516
-0.21503337 0.053116523 0.35736457
-0.21281843 0.053056091 0.35744098
-0.21102886 0.053002536 0.35746181
-0.20906796 0.052833743 0.35751539
-0.20694155 0.052988868 0.35755557
-0.20488606 0.052840889 0.35767016
-0.2031792 0.052805826 0.35779512
-0.20149547 0.053174328 0.35793051
-0.25049055 0.055050805 0.35637859
-0.24884285 0.055040907 0.35679519
-0.24704015 0.054996502 0.35698271
-0.24522893 0.054949671 0.35714936
-0.24335289 0.054887731 0.35721183
-0.24145952 0.05496525 0.35708684
-0.23919886 0.055074979 0.35668066
-0.2372012 0.054981552 0.35652441
-0.23527427 0.054903526 0.35646191
-0.23311868 0.054907393 0.35646191
-0.23088492 0.05505326 0.3565869
-0.22890843 0.055115893 0.35671189
-0.22717236 0.055079702 0.35689938
-0.22495349 0.055021919 0.3570452
-0.22272949 0.054961953 0.35717019
-0.22086893 0.054893162 0.3571285
-0.21904068 0.054831579 0.35712853
-0.21722732 0.055173472 0.35711807
-0.21498989 0.05510607 0.35717019
-0.21275437 0.055038221 0.35721183
-0.21097112 0.054984398 0.35724306
-0.20919342 0.05493132 0.35727429
-0.20701672 0.054876078 0.35737848
-0.20483507 0.05481869 0.35746181
-0.20313042 0.055180948 0.35756597
-0.20106742 0.055154052 0.35783678
-0.25243449 0.057574578 0.35621196
-0.25098449 0.057065509 0.35653692
-0.24903113 0.057122521 0.35693061
-0.2471832 0.057066545 0.3570556
-0.24536341 0.057016425 0.35721183
-0.24340074 0.056932356 0.35714933
-0.24134067 0.056824319 0.35693061
-0.2393086 0.057127059 0.35671189
-0.23733038 0.057035297 0.3565869
-0.23536082 0.056944489 0.35646191
-0.23302238 0.056859512 0.35647583
-0.23081437 0.05720856 0.3566494
-0.22903173 0.057160333 0.35677439
-0.22703581 0.057198249 0.35698685
-0.22488849 0.056975853 0.35711184
-0.22277679 0.056982916 0.35711807
-0.22090259 0.056908317 0.3570556
-0.2190354 0.056834638 0.35699311
-0.21720982 0.057171423 0.35696188
-0.21495746 0.057097778 0.35698968
-0.21275491 0.0570364 0.35708681
-0.21098988 0.056985762 0.35714933
-0.20923002 0.05693597 0.35721183
-0.20701635 0.056868818 0.35725346
-0.20484626 0.056812752 0.35735765
-0.2031417 0.057174005 0.35746181
-0.20106649 0.057142925 0.35771179
-0.19943754 0.057126693 0.35796174
-0.25258282 0.058833912 0.35633692
-0.25094217 0.058826137 0.35677439
-0.24908014 0.059029985 0.35701185
-0.24731541 0.05913645 0.35710767
-0.24537255 0.059055362 0.35708687
-0.24336664 0.058958009 0.35696188
-0.24135572 0.058858272 0.35681605
-0.23937941 0.059171312 0.35668066
-0.23740017 0.059076369 0.35655564
-0.23497981 0.058969483 0.35646191
-0.232714 0.058900088 0.3565869
-0.23092455 0.058849704 0.35671189
-0.22918075 0.058810458 0.35689938
-0.22685571 0.059050947 0.35705563
-0.2247483 0.059093788 0.357191
-0.22285295 0.059012342 0.35710767
-0.22093911 0.058924954 0.35698271
-0.21909679 0.058855664 0.35696188
-0.2172517 0.059185181 0.35689938
-0.21501942 0.059114877 0.35696188
-0.21275792 0.059035402 0.35696188
-0.21099246 0.058983088 0.35702434
-0.20926884 0.05894186 0.35714933
-0.20706661 0.058875967 0.35721183
-0.20487162 0.058811169 0.35727432
-0.2031198 0.059021316 0.35746181
-0.2011227 0.059148636 0.35768402
-0.19916096 0.059285849 0.35796174
-0.25240842 0.060678583 0.35630569
-0.2509847 0.060878854 0.35669109
-0.24926567 0.060995538 0.35686189
-0.24731363 0.061175466 0.35696188
-0.24538454 0.061095238 0.35696188
-0.24337806 0.060994647 0.35683689
-0.24138063 0.060895093 0.35671189
-0.23929194 0.06103465 0.3565619
-0.23708187 0.061197121 0.35646194
-0.23479767 0.060886834 0.35646194
-0.23279126 0.060939226 0.35656607
-0.23101433 0.060890794 0.35671189
-0.22926949 0.060850266 0.35689938
-0.22718585 0.061024778 0.35705113
-0.22478887 0.061117407 0.35711807
-0.22290577 0.061036788 0.3570556
-0.22101036 0.06095184 0.35696188
-0.21917988 0.060883757 0.35696188
-0.21719864 0.061035097 0.35683689
-0.21506733 0.061129231 0.35690632
-0.2128381 0.061056685 0.35696188
-0.21105933 0.060999062 0.35700354
-0.20891076 0.06094785 0.35717019
-0.20669626 0.060876414 0.35721183
-0.20494737 0.060825139 0.35727432
-0.20299639 0.061024349 0.35751539
-0.20080425 0.061161265 0.35777429
-0.19928212 0.06100443 0.35796174
-0.252635 0.063101716 0.35633692
-0.25094977 0.062912934 0.35649315
-0.24913707 0.062861636 0.35668063
-0.24726549 0.062794782 0.35677439
-0.24534269 0.063121475 0.35675356
-0.24340713 0.063036062 0.35673273
-0.241409 0.062933199 0.35660776
-0.23949187 0.062991604 0.35643691
-0.23697229 0.06311769 0.35633692
-0.23463431 0.063025892 0.35636818
-0.23281699 0.062965795 0.35646191
-0.23106635 0.062923118 0.3566494
-0.22906122 0.062956244 0.35686189
-0.226813 0.062945835 0.35702434
-0.22485863 0.063149966 0.35708687
-0.22294849 0.063059486 0.35698271
-0.22107174 0.062977269 0.35692021
-0.21921472 0.062899604 0.35687855
-0.21722434 0.06308765 0.35683689
-0.21493962 0.063059211 0.35686189
-0.2129207 0.063080162 0.35696188
-0.21111631 0.063013382 0.35696188
-0.2089911 0.062967874 0.35717019
-0.20677531 0.062894151 0.35721183
-0.20507927 0.062857777 0.35736805
-0.20297819 0.062817454 0.35758683
-0.20090014 0.062783815 0.35783678
-0.19964184 0.062759675 0.35796174
-0.25282609 0.065024115 0.35623276
-0.25097701 0.064962551 0.35637859
-0.24913453 0.064902119 0.35652438
-0.2472841 0.064838879 0.3566494
-0.24539688 0.065172628 0.35668063
-0.24343203 0.065076843 0.35661817
-0.24141194 0.064965092 0.35646191
-0.23940122 0.064854398 0.35630569
-0.23686545 0.065038912 0.35621193
-0.23464324 0.065050073 0.35623276
-0.23284574 0.064993724 0.35635772
-0.23106758 0.064942203 0.35650358
-0.22914693 0.064897947 0.35672978
-0.22708401 0.064943835 0.356819
-0.22479314 0.065144613 0.35683689
-0.22290918 0.065058962 0.35677439
-0.22109038 0.064991295 0.35680565
-0.21927769 0.064924553 0.35683689
-0.21699673 0.064835303 0.35683689
-0.21476734 0.065160729 0.35687855
-0.21300612 0.065106191 0.35696188
-0.21121295 0.065041177 0.35698271
-0.20907408 0.064990431 0.35717019
-0.20685698 0.064914413 0.35721183
-0.20517786 0.064882569 0.35739931
-0.20310502 0.064850569 0.35767013
-0.2010252 0.064815812 0.35792008
-0.25232315 0.066633433 0.35608697
-0.25094864 0.06699793 0.35618067
-0.24913491 0.066943437 0.35636815
-0.24730572 0.06688416 0.35652441
-0.2454184 0.066808313 0.3565869
-0.24326921 0.067229986 0.35651547
-0.24118479 0.067007162 0.35644111
-0.23897894 0.06687592 0.35622978
-0.23688951 0.066945232 0.35621193
-0.2347305 0.0670968 0.35621193
-0.23285019 0.067015246 0.35621193
-0.2310985 0.066969961 0.35639942
-0.2290525 0.066827223 0.3565619
-0.22687677 0.066910915 0.35663691
-0.22477002 0.067151032 0.3566494
-0.22296393 0.067086287 0.35671189
-0.22112495 0.067010663 0.35671189
-0.21931793 0.066943713 0.35675356
-0.21706983 0.066862188 0.35680908
-0.21485005 0.067188755 0.35686815
-0.21309398 0.067134574 0.35696188
-0.21105008 0.067143507 0.35701185
-0.20895672 0.066921033 0.35713682
-0.20694107 0.06693697 0.35721183
-0.20501132 0.066820219 0.35743681
-0.20299311 0.06693913 0.35763681
-0.20109397 0.066831514 0.35789925
-0.25101194 0.069058225 0.3561078
-0.24918269 0.068998009 0.35627446
-0.24737437 0.068942957 0.35646191
-0.24525526 0.068964705 0.35647979
-0.24286571 0.069063157 0.35646191
-0.24062797 0.069032505 0.35639942
-0.23859794 0.068909429 0.35621193
-0.23663983 0.068805628 0.3561182
-0.23475231 0.069125898 0.35608697
-0.23291223 0.069053926 0.35614944
-0.23107857 0.0689831 0.35621193
-0.22930491 0.068929359 0.35635772
-0.22703709 0.068845935 0.35644805
-0.2247692 0.069163822 0.35649315
-0.22294316 0.069091 0.35652441
-0.22110391 0.069013141 0.35652441
-0.21906972 0.069028109 0.35663691
-0.21691713 0.068788901 0.35671189
-0.21479468 0.069039226 0.35678691
-0.2131473 0.06915348 0.35689938
-0.2110341 0.069177419 0.35694626
-0.20889506 0.068886757 0.35701543
-0.20695536 0.068938009 0.35708687
-0.20483245 0.068888322 0.35728127
-0.20275487 0.068853185 0.35754514
-0.20111854 0.06883353 0.35779512
-0.19929065 0.069058657 0.35794091
-0.25258076 0.071202815 0.35608697
-0.25118124 0.071149409 0.35618067
-0.24929917 0.071072847 0.35627443
-0.24700588 0.070992872 0.35646191
-0.24459302 0.070877224 0.35646191
-0.24257267 0.071024656 0.35643691
-0.24069665 0.071084268 0.35633692
-0.23870742 0.070970088 0.35621193
-0.2367271 0.070857018 0.35608697
-0.23485942 0.071181156 0.35608697
-0.23297714 0.071094692 0.35608697
-0.23112221 0.071015514 0.3561182
-0.22931424 0.070949927 0.35621193
-0.22701478 0.070854321 0.35625359
-0.22477138 0.071177632 0.35633692
-0.22296442 0.071108975 0.35639942
-0.22113752 0.071033023 0.35642025
-0.21932952 0.070962213 0.35646191
-0.21710563 0.070884116 0.35655916
-0.21499141 0.070975065 0.35666192
-0.21312849 0.071149424 0.35671189
-0.21109104 0.070996776 0.35678688
-0.20895207 0.071075402 0.35681188
-0.20695387 0.070934005 0.35693061
-0.20521919 0.070880696 0.35702434
-0.20313279 0.070841707 0.35727432
-0.20106901 0.071208753 0.35752431
-0.19900462 0.071176402 0.35779512
-0.19698252 0.071289606 0.35796174
-0.19559896 0.071882412 0.35796174
-0.25272292 0.072880805 0.35614944
-0.25130028 0.072819643 0.35621193
-0.24917994 0.073131286 0.35622978
-0.24691646 0.073036812 0.35633692
-0.24465226 0.07293237 0.35637859
-0.24282396 0.073005423 0.35636193
-0.24074721 0.073131762 0.35624319
-0.23881987 0.073033445 0.35621193
-0.23683809 0.072917089 0.35608697
-0.23492521 0.07241568 0.35608697
-0.23304206 0.072327718 0.35608697
-0.23120964 0.073062688 0.35608697
-0.22907636 0.073088042 0.35621193
-0.22682132 0.07276541 0.35621193
-0.22479597 0.073198855 0.35621193
-0.22296877 0.073121816 0.35624316
-0.22114782 0.073045805 0.35627443
-0.21888202 0.072952874 0.35631609
-0.21666932 0.072876379 0.35643068
-0.21488774 0.072810352 0.35649315
-0.21311235 0.073145956 0.35652438
-0.21115337 0.072960772 0.35660478
-0.20900024 0.073089607 0.35661814
-0.20691879 0.072918192 0.35671189
-0.20522593 0.072878294 0.35687855
-0.20311545 0.072829768 0.35708687
-0.20103413 0.073189735 0.35730559
-0.19898717 0.073162846 0.35760763
-0.19690423 0.073122188 0.35783678
-0.19521002 0.073078826 0.35796174
-0.19390786 0.073431939 0.35796174
-0.25311598 0.074984699 0.35618067
-0.25122276 0.075010784 0.35621193
-0.24879596 0.075095072 0.35618693
-0.24658801 0.075069711 0.35621193
-0.24465738 0.074972041 0.35621193
-0.24273463 0.074875608 0.35621193
-0.2407383 0.075024068 0.35621193
-0.23886597 0.075078003 0.3561078
-0.2369525 0.074980348 0.35608697
-0.23557848 0.075736269 0.35608697
-0.23322086 0.075621158 0.35608697
-0.23132013 0.075118795 0.35608697
-0.22898294 0.07500758 0.35608697
-0.22665581 0.074897997 0.35608697
-0.22482166 0.074818157 0.3561182
-0.22300224 0.075144589 0.3561286
-0.22116113 0.075059928 0.3561286
-0.21913771 0.074969992 0.35614052
-0.21697904 0.074885853 0.3562119
-0.21490546 0.074820079 0.35635778
-0.21317349 0.075169519 0.35646191
-0.21109791 0.075159706 0.35646191
-0.20892823 0.074903235 0.35646191
-0.20692229 0.074915722 0.35655564
-0.20520507 0.074866049 0.35668063
-0.20297635 0.075108103 0.3568525
-0.20100182 0.075170964 0.35708687
-0.19895674 0.07514409 0.35739243
-0.19691198 0.075116992 0.35769096
-0.19522868 0.075076766 0.35783675
-0.19320457 0.075117946 0.3579461
-0.19137996 0.075755522 0.35796174
-0.25082815 0.07685791 0.35616192
-0.24862731 0.076834291 0.35621193
-0.24676482 0.076977149 0.35616192
-0.24466968 0.076606423 0.35608697
-0.24278516 0.076927356 0.3561078
-0.24097733 0.077000976 0.35611194
-0.23897091 0.077142358 0.35608697
-0.2370699 0.077046447 0.35608697
-0.23517631 0.07695175 0.35608697
-0.23329003 0.07685826 0.35608697
-0.23096541 0.077155009 0.35608697
-0.2289241 0.076781891 0.35608697
-0.22718598 0.076151542 0.35608697
-0.21801192 0.076539382 0.35608697
-0.21668306 0.076891884 0.3561182
-0.21493818 0.076835677 0.35624316
-0.21318756 0.077177279 0.35631609
-0.21097216 0.077092052 0.35639244
-0.2087604 0.077006951 0.35646191
-0.20696481 0.076927967 0.35646191
-0.20508143 0.076992415 0.35662264
-0.20311777 0.076952033 0.35675356
-0.20100698 0.077165961 0.35693064
-0.19893628 0.077128649 0.357191
-0.196876 0.077094816 0.35746181
-0.19521552 0.077062525 0.35764933
-0.19311917 0.077013351 0.35783675
-0.19114636 0.077092744 0.35796174
-0.24861696 0.078057423 0.35608697
-0.24239013 0.078558646 0.35608697
-0.24097821 0.078898929 0.35608697
-0.23921911 0.078669742 0.35608697
-0.23714189 0.078287616 0.35608697
-0.23510581 0.078459017 0.35608697
-0.2333602 0.078096345 0.35608697
-0.23104268 0.078529038 0.35608697
-0.22918601 0.078710727 0.35608697
-0.21627133 0.078089878 0.35608697
-0.21497382 0.078853019 0.3561286
-0.21322909 0.079195499 0.35621193
-0.21102913 0.079114206 0.35631609
-0.20886099 0.079043709 0.35646191
-0.20706411 0.078962617 0.35646191
-0.2050519 0.078968622 0.35653692
-0.20298791 0.078744568 0.35668689
-0.20102634 0.079166718 0.35679522
-0.19892605 0.079116911 0.35700357
-0.19684254 0.079073004 0.35723266
-0.19515918 0.079030678 0.35737848
-0.1930818 0.078987882 0.35760069
-0.19101661 0.078949526 0.35783675
-0.18920068 0.079169773 0.35796174
-0.24302393 0.08107952 0.35608697
-0.24110486 0.080976285 0.35608697
-0.23941936 0.080679491 0.35608697
-0.21507494 0.080895677 0.3561182
-0.21331418 0.080830365 0.35621193
-0.21100967 0.081046186 0.35630566
-0.20896445 0.081083693 0.35646191
-0.20717831 0.081005253 0.35648274
-0.2049986 0.080926381 0.3565869
-0.20277834 0.08083009 0.35660776
-0.20105982 0.081173666 0.35668063
-0.19890641 0.081101224 0.35679519
-0.19680545 0.081049159 0.35699311
-0.19514486 0.081015199 0.3571806
-0.19305409 0.080965824 0.35737848
-0.19100735 0.080934346 0.35764933
-0.18894331 0.08089482 0.35787845
-0.1868076 0.080823749 0.35796174
-0.18510461 0.081562325 0.35796174
-0.18338794 0.081896171 0.35796174
-0.17864141 0.081705697 0.35796174
-0.17692403 0.081638224 0.35796174
-0.17521027 0.081571519 0.35796174
-0.24315539 0.083162718 0.35608697
-0.24125586 0.083064087 0.3561182
-0.21653391 0.083003886 0.35608697
-0.21520413 0.082951136 0.35614944
-0.21300286 0.082867876 0.35626745
-0.21082029 0.083191134 0.35636818
-0.2090704 0.083126582 0.35646191
-0.20707837 0.083139323 0.3565869
-0.2049183 0.082875177 0.3565869
-0.20283227 0.082847044 0.35652441
-0.20106065 0.083167829 0.35650361
-0.19893585 0.083105743 0.35667023
-0.19679384 0.083035283 0.35679522
-0.1951216 0.082995683 0.35696188
-0.19303635 0.082947478 0.35717019
-0.19098938 0.082915187 0.35744095
-0.18892516 0.082874693 0.35767016
-0.18683267 0.082821123 0.35783675
-0.18514413 0.08316803 0.35789928
-0.18300843 0.083092734 0.35796174
-0.18084711 0.083004221 0.35796174
-0.17912322 0.082934499 0.35796174
-0.17685072 0.083012648 0.35794386
-0.17483924 0.083162755 0.35794091
-0.17323235 0.083265282 0.35796174
-0.17189412 0.083856858 0.35796174
-0.24278161 0.084804654 0.35608697
-0.24126129 0.084968589 0.35608697
-0.21664803 0.08505667 0.35608697
-0.21505611 0.085073933 0.35616192
-0.21290973 0.084818713 0.35623693
-0.21088976 0.084821753 0.35633692
-0.209167 0.085167855 0.35644105
-0.2070559 0.085175008 0.35647756
-0.20487332 0.08484856 0.35646194
-0.20290072 0.084871441 0.35646191
-0.20114017 0.085195415 0.35646191
-0.19895588 0.085106827 0.35652438
-0.19683042 0.085042141 0.35668063
-0.19513471 0.084991559 0.35680565
-0.19304328 0.084939741 0.35700354
-0.19097911 0.084899165 0.35724306
-0.18892007 0.084860176 0.35748264
-0.18683521 0.085206151 0.35762846
-0.18513893 0.085151233 0.35771179
-0.1830277 0.085085541 0.35782287
-0.18091494 0.085017972 0.35792008
-0.17917968 0.084941588 0.35789928
-0.17710316 0.084940448 0.35782114
-0.17484294 0.0851411 0.35777426
-0.17317894 0.085094959 0.35786802
-0.1715183 0.085049689 0.35796174
-0.24269241 0.087088808 0.35608697
-0.24192943 0.086420342 0.35608697
-0.21480717 0.086781509 0.35610482
-0.21271591 0.086922981 0.35617027
-0.21094048 0.086846732 0.35623276
-0.20918056 0.087176301 0.35627443
-0.20697825 0.08708483 0.35635778
-0.20475946 0.086984813 0.35639942
-0.20297156 0.086897984 0.35639942
-0.20118921 0.086812295 0.35639942
-0.19901733 0.087126583 0.35644805
-0.19688107 0.087056004 0.3565869
-0.19519596 0.087009303 0.35673273
-0.19310518 0.086957008 0.35693413
-0.19103806 0.086914562 0.35717019
-0.18893939 0.086856768 0.35733685
-0.18682697 0.087189041 0.35743055
-0.18511961 0.087127678 0.35749307
-0.18300998 0.087061234 0.35760769
-0.18090054 0.086993784 0.35771179
-0.17917548 0.086920619 0.35771179
-0.17690182 0.086994477 0.35769394
-0.17488946 0.087141149 0.35769096
-0.17302878 0.087192751 0.3577475
-0.17105903 0.086941533 0.3579461
-0.1695088 0.087789513 0.35796174
-0.2425499 0.088538989 0.35608697
-0.2104933 0.088429376 0.35608697
-0.2091386 0.088360444 0.35608697
-0.20696066 0.088277996 0.35621193
-0.20470405 0.088560037 0.35614944
-0.20284732 0.088715658 0.35616192
-0.20121467 0.088818841 0.35625359
-0.19907324 0.089145087 0.35635778
-0.19698578 0.089095481 0.3565869
-0.19487 0.089031838 0.35675356
-0.19278225 0.088980153 0.35696188
-0.19107696 0.088921785 0.3570556
-0.18896092 0.088854909 0.357191
-0.18672824 0.089007303 0.3572368
-0.18509191 0.089099713 0.35725346
-0.18298037 0.089030802 0.35736459
-0.1808778 0.088965155 0.35748267
-0.1791631 0.0888955 0.3575035
-0.17711964 0.088906527 0.3574931
-0.17491244 0.089130156 0.35755554
-0.17301276 0.089161269 0.35768682
-0.17103007 0.088952124 0.35783678
-0.16928275 0.089124493 0.35796174
-0.20109834 0.090688378 0.3561286
-0.19904117 0.090948358 0.35635477
-0.19712777 0.091154285 0.3566494
-0.19497575 0.09107317 0.35675353
-0.19287504 0.091014825 0.35694107
-0.19114067 0.090941809 0.35698271
-0.18897752 0.09085118 0.35703132
-0.18690661 0.0909243 0.35706186
-0.18508771 0.091082819 0.3570556
-0.1829883 0.09101858 0.357191
-0.18086767 0.090942472 0.35727432
-0.17915785 0.09087383 0.35730559
-0.17692581 0.090964958 0.35737252
-0.17495811 0.09113171 0.35746181
-0.17288002 0.091071822 0.3575868
-0.17082666 0.091024011 0.35775343
-0.16919315 0.090989947 0.35789922
-0.16774416 0.091146626 0.35796174
-0.20039718 0.092675209 0.35616192
-0.19892722 0.092973828 0.35636193
-0.19718581 0.093176238 0.35655567
-0.1950497 0.09310136 0.35669103
-0.19290821 0.093022645 0.35680565
-0.19118428 0.092953347 0.35686812
-0.18888089 0.093017958 0.35687259
-0.18681598 0.093143694 0.35683689
-0.18509676 0.093072511 0.35687855
-0.18297723 0.092996858 0.35697579
-0.18089138 0.092937075 0.3571285
-0.1791863 0.092869557 0.35717019
-0.17718321 0.092898302 0.35724306
-0.17499039 0.093127064 0.35733682
-0.17293172 0.093076706 0.3575035
-0.17086729 0.093022302 0.35764933
-0.16920847 0.092973903 0.35774302
-0.16716747 0.092930414 0.35792008
-0.16550851 0.093275152 0.35796174
-0.20009944 0.09444084 0.35608697
-0.19887657 0.094823644 0.35624319
-0.19720037 0.095178537 0.35637856
-0.19508067 0.095110267 0.35654527
-0.19291015 0.095015801 0.35660771
-0.19114117 0.094922744 0.3565869
-0.18905759 0.094918266 0.35657129
-0.18678938 0.095116958 0.3565869
-0.18509711 0.095058069 0.35668063
-0.18298592 0.094985224 0.35679522
-0.18090671 0.094927862 0.35696188
-0.17921151 0.094864219 0.35702437
-0.17701128 0.094969817 0.35715827
-0.17505544 0.095141232 0.35727432
-0.17298555 0.095084116 0.35742012
-0.17093015 0.095033981 0.35758683
-0.1689633 0.095076159 0.35769618
-0.16696222 0.094803356 0.3578189
-0.16524799 0.095042996 0.35796174
-0.16349943 0.095616236 0.35796174
-0.19874929 0.096289866 0.3561286
-0.19720578 0.097176716 0.35618067
-0.19503415 0.097081311 0.35625359
-0.19284108 0.096973449 0.35627443
-0.19108339 0.096884012 0.35627443
-0.18891913 0.097184643 0.35628137
-0.18677618 0.097096585 0.35635778
-0.18508904 0.097039245 0.35646191
-0.18299711 0.096975178 0.35661471
-0.18091375 0.09691456 0.35677442
-0.179075 0.09697663 0.35690832
-0.17716272 0.096801892 0.35703331
-0.17512268 0.097157896 0.35721183
-0.17308176 0.097116433 0.35742012
-0.17099479 0.097048134 0.35752434
-0.16891341 0.096981518 0.35762846
-0.16684161 0.096919134 0.35774302
-0.16520315 0.09687943 0.35786802
-0.16301762 0.096982971 0.35796171
-0.1614774 0.097553447 0.35796174
-0.19501203 0.0982664 0.35608697
-0.19280753 0.098151401 0.35608697
-0.19104987 0.098060802 0.35608697
-0.18803003 0.09872292 0.35608697
-0.18661238 0.098933518 0.3561286
-0.18508306 0.099021405 0.35624316
-0.18302459 0.09897422 0.35646188
-0.18095447 0.098919958 0.3566494
-0.1788687 0.098855823 0.35679522
-0.17681363 0.098807722 0.35699311
-0.17521256 0.099189132 0.357191
-0.17315334 0.099136978 0.35736454
-0.17106183 0.099065304 0.35746181
-0.16896932 0.098991349 0.35754517
-0.16691096 0.098936237 0.35769096
-0.16493915 0.098971695 0.35777426
-0.16304238 0.098814107 0.35787842
-0.16112769 0.099158041 0.35796174
-0.18495898 0.10048131 0.3561286
-0.18302596 0.10095955 0.35625356
-0.18096597 0.10090994 0.35646188
-0.17891093 0.10086206 0.35667023
-0.17688072 0.10082763 0.35692021
-0.17485468 0.10119114 0.3571285
-0.17279673 0.10113908 0.35730559
-0.17111577 0.10107623 0.35736808
-0.16901727 0.10099775 0.35744098
-0.16694334 0.10093257 0.35755557
-0.16488425 0.10087497 0.35769096
-0.16273795 0.10104789 0.3577868
-0.16120057 0.10117751 0.35792008
-0.15995395 0.10113403 0.35796174
