# .PCD v0.7 - Point Cloud Data file format
VERSION 0.7
FIELDS x y z
SIZE 4 4 4
TYPE F F F
COUNT 1 1 1
WIDTH 1414
HEIGHT 1
VIEWPOINT 0 0 0 1 0 0 0
POINTS 1414
DATA ascii
0.109119 0.056984849 0.36866891
0.11117093 0.057027373 0.36873147
0.11283198 0.057070225 0.3688356
0.11491106 0.057123736 0.36896059
0.11693375 0.057027929 0.36916056
0.11910316 0.056845073 0.36929384
0.12120032 0.056901917 0.36942929
0.12285624 0.056936141 0.36946052
0.12491683 0.056973528 0.36946055
0.12698101 0.057011597 0.36946052
0.12904932 0.057050463 0.36946055
0.13112135 0.057090029 0.36946052
0.13278203 0.057122238 0.36946052
0.13486174 0.05716322 0.36946055
0.13702382 0.056964815 0.36946052
0.13902521 0.056844249 0.36946055
0.14109357 0.056877505 0.36939803
0.14304903 0.056904696 0.3693043
0.14505149 0.056938659 0.36924624
0.14690115 0.056973275 0.36921051
0.14901567 0.057021432 0.36922443
0.15116613 0.057082098 0.3693147
0.15291281 0.057139594 0.36943969
0.15496366 0.056973137 0.36956766
0.15727131 0.056873061 0.36971051
0.15897962 0.056912825 0.36971051
0.16111097 0.056960102 0.36968967
0.16319665 0.056990534 0.36955428
0.16487485 0.057017803 0.36946052
0.16702962 0.057070751 0.36946055
0.16918986 0.057124551 0.36946052
0.17092252 0.057168264 0.36946052
0.17310278 0.056937546 0.36949629
0.17513251 0.05688585 0.36958551
0.17707622 0.056939363 0.36960635
0.17878716 0.056972697 0.36952305
0.18095796 0.057023808 0.36947444
0.18312068 0.057071399 0.36939803
0.18482332 0.057100367 0.36927304
0.18700382 0.057151992 0.36921051
0.18919373 0.056798432 0.36917931
0.19095743 0.056843769 0.36914805
0.19274181 0.056894608 0.36914808
0.19501226 0.056968827 0.36921051
0.19729054 0.057043925 0.36927304
0.19917685 0.057121336 0.36942929
0.2010527 0.057194598 0.36955428
0.20292699 0.056856226 0.36968967
0.20479245 0.056923997 0.369773
0.2066641 0.056992594 0.36985633
0.20901263 0.057079419 0.36996052
0.2169991 0.056776986 0.36996046
0.21871166 0.056971177 0.36996049
0.22085817 0.056957655 0.36996049
0.22311583 0.057199262 0.36996049
0.22527859 0.057187803 0.36996049
0.227153 0.056831885 0.36996049
0.22854272 0.056040391 0.36996049
0.23659997 0.056988277 0.36996049
0.23887113 0.056724429 0.36991051
0.24115607 0.056964427 0.3698355
0.24330938 0.056940928 0.36971051
0.24526389 0.057011649 0.36971051
0.24722594 0.05708326 0.36971051
0.24919562 0.057155777 0.36971051
0.25117314 0.05722921 0.36971051
0.25311139 0.056871552 0.36966881
0.25496063 0.056914169 0.36946049
0.25683028 0.056960911 0.36927304
0.25873533 0.057014897 0.36912724
0.26063257 0.057066675 0.36896059
0.26251042 0.056962419 0.36891061
0.26502579 0.056873582 0.36946055
0.020976719 0.059112057 0.36808565
0.023023922 0.058823712 0.36808568
0.035522249 0.058485195 0.36808568
0.037092473 0.058892597 0.36811692
0.039057475 0.058915526 0.36818984
0.041018344 0.058930688 0.36821067
0.042978197 0.058943111 0.36821067
0.044939101 0.05895609 0.36821067
0.04690126 0.058969688 0.36821067
0.04886457 0.05898384 0.36821067
0.050820634 0.058988541 0.36814818
0.053179566 0.059007034 0.36814818
0.055146847 0.059023082 0.36814818
0.057115685 0.059039772 0.36814818
0.059090987 0.059062067 0.36817944
0.061075184 0.059091654 0.36825237
0.063074119 0.059133507 0.36839816
0.065179475 0.058999959 0.36849636
0.067051478 0.058799971 0.36854395
0.069029666 0.058818001 0.36853006
0.071006812 0.058834393 0.36850229
0.072980151 0.058847062 0.36844674
0.074960448 0.058864627 0.36841896
0.076948404 0.058887355 0.36841899
0.078942798 0.05891405 0.36843979
0.080954984 0.058952451 0.36853006
0.08297646 0.058995951 0.36864808
0.084985666 0.059029087 0.36869669
0.086989366 0.059057254 0.36871061
0.089002632 0.05909054 0.36875227
0.091028772 0.059131127 0.3688356
0.093069158 0.059179127 0.36896059
0.094998263 0.059047174 0.36896059
0.097106494 0.058848325 0.36902308
0.099107355 0.058868166 0.36896059
0.10111044 0.05888864 0.36889812
0.10308951 0.058894772 0.36874187
0.10506397 0.058898274 0.36856481
0.10706069 0.058914147 0.36846063
0.10909032 0.058947358 0.36846063
0.11114178 0.058991157 0.36852312
0.11281843 0.05904384 0.36867937
0.11492017 0.059110772 0.36887726
0.11710797 0.058941137 0.36908558
0.11912151 0.058840409 0.36923826
0.12121343 0.058896419 0.36935639
0.12287311 0.058933333 0.36939803
0.12494585 0.058977518 0.36943278
0.12702015 0.059021339 0.36946055
0.12908922 0.059061483 0.36946055
0.13114724 0.05909558 0.36941886
0.13280833 0.059128851 0.36941886
0.13479184 0.059072442 0.36944491
0.13697955 0.05881758 0.36946052
0.13904484 0.058851242 0.36939803
0.14110181 0.058880668 0.3693043
0.14299275 0.058826543 0.36921054
0.14499325 0.059024226 0.36916056
0.14689773 0.058974467 0.36908558
0.14901517 0.059025329 0.36910641
0.15115871 0.059085339 0.36917931
0.15290548 0.059144683 0.36930427
0.15519421 0.058917806 0.36946052
0.15724178 0.058874324 0.36952305
0.15896785 0.058921993 0.36956468
0.1610871 0.058966458 0.36951607
0.16318959 0.059003949 0.36941886
0.16488172 0.059037 0.36935636
0.16699596 0.059077315 0.36926609
0.16914968 0.059130665 0.3692522
0.17089176 0.059179157 0.36927304
0.17310035 0.058844563 0.36937723
0.17531739 0.058915775 0.36946052
0.17706457 0.058962822 0.36946052
0.1788007 0.059005469 0.36942929
0.18096004 0.059054345 0.36935636
0.1831041 0.059097447 0.36924177
0.18485376 0.059142388 0.36921054
0.1870138 0.059189003 0.36910641
0.18919848 0.058835488 0.36906472
0.19095707 0.058880672 0.36902308
0.19276343 0.05893993 0.36906478
0.19492175 0.058910951 0.36913243
0.19713561 0.059209805 0.36921051
0.1991256 0.059012569 0.36938554
0.20107371 0.058839612 0.36949176
0.20297354 0.058920678 0.36964798
0.20482813 0.058987532 0.36971051
0.20674115 0.059070144 0.36986676
0.20889835 0.059069108 0.36996049
0.21001829 0.059603959 0.36996049
0.21735941 0.058178216 0.36996049
0.21922398 0.058239806 0.36996049
0.23534489 0.059217993 0.36996049
0.23687518 0.05902056 0.36996049
0.23863608 0.058901761 0.36985636
0.24099225 0.058974061 0.36975214
0.2433989 0.059057686 0.36971048
0.24534069 0.059127539 0.36968967
0.24729903 0.058780454 0.36971051
0.24926963 0.058855031 0.36971051
0.25122678 0.058925532 0.36967927
0.25308454 0.058972079 0.36949176
0.25492674 0.059014551 0.36927304
0.25679645 0.059062801 0.36908555
0.25869447 0.059117071 0.36892936
0.26057711 0.059167236 0.36874187
0.26272017 0.059002794 0.36878559
0.26425841 0.058916967 0.36896059
0.02166494 0.060787428 0.36808568
0.022952219 0.060634386 0.36808568
0.037487295 0.060071874 0.36808568
0.039211892 0.060397469 0.36808568
0.041014232 0.060487468 0.36808568
0.042973887 0.060500193 0.36808565
0.044942427 0.060914885 0.36812735
0.046806544 0.060830358 0.36813253
0.048727777 0.060409363 0.36808571
0.050035156 0.060156185 0.36808568
0.057116181 0.060214441 0.36808568
0.059086539 0.06023204 0.36808568
0.061182562 0.06082195 0.36812139
0.063053988 0.06107372 0.36816898
0.065044686 0.061107259 0.3682524
0.067037925 0.061141308 0.36833569
0.069018364 0.0611623 0.36833566
0.070996515 0.061180469 0.36831483
0.072971001 0.06119471 0.36826625
0.074874282 0.06105715 0.36826068
0.076941304 0.060845718 0.36827317
0.078944474 0.060880151 0.36833566
0.080959827 0.060922097 0.36843979
0.082966603 0.060956061 0.36849189
0.084985994 0.060997698 0.36858562
0.087001257 0.061034687 0.36864811
0.089019798 0.061072547 0.36871061
0.091041334 0.061110914 0.3687731
0.09307158 0.061153587 0.36885643
0.095174596 0.060953997 0.36891061
0.097109005 0.060824793 0.36891896
0.099109948 0.060845111 0.36885643
0.10109796 0.060857099 0.36873838
0.10307195 0.060860511 0.36856481
0.10505113 0.060866937 0.3684051
0.10703353 0.060875162 0.36825237
0.10907101 0.060913965 0.36828014
0.11113893 0.060968444 0.36839816
0.11279327 0.061010778 0.36848149
0.11490442 0.061085045 0.36871061
0.11702108 0.061160091 0.36893976
0.11900725 0.060996499 0.36912128
0.12120371 0.060879905 0.36921054
0.12287028 0.060921419 0.36927304
0.12493133 0.060961246 0.36927304
0.12701747 0.061012194 0.36933553
0.12907203 0.061046671 0.36929384
0.13113734 0.061085347 0.36927304
0.13279842 0.061119664 0.36927301
0.1350168 0.061003301 0.36933556
0.13698484 0.060818005 0.36935639
0.13904524 0.060850408 0.36927995
0.1411116 0.060884852 0.36921051
0.14317113 0.060915418 0.36911333
0.14522035 0.060941141 0.36898145
0.14688759 0.060972881 0.36893976
0.14899382 0.061020784 0.36893284
0.15114436 0.061085582 0.36902308
0.15289113 0.06114687 0.36914805
0.15493669 0.060982671 0.36926413
0.15724033 0.060885794 0.36939803
0.15894862 0.060928188 0.36939806
0.16107993 0.060978625 0.36937723
0.1631656 0.061010983 0.36924177
0.16487166 0.061050318 0.36921054
0.16702683 0.061106797 0.36921051
0.16918752 0.061164171 0.36921054
0.17092051 0.061210793 0.36921054
0.17309369 0.060865726 0.36923829
0.17529775 0.060934622 0.36929384
0.17704491 0.060983192 0.36929384
0.17879623 0.061032426 0.36929384
0.18096425 0.061085753 0.36923826
0.18315172 0.061144665 0.36921051
0.18490465 0.060785219 0.36921054
0.18705504 0.060829639 0.36908558
0.18924247 0.060885314 0.36902308
0.19099095 0.060928594 0.36896059
0.19280888 0.060993213 0.36902308
0.19463201 0.061058562 0.36908558
0.19694398 0.061149079 0.36921051
0.1993871 0.06100766 0.36941054
0.20116174 0.060915172 0.36952305
0.20307972 0.061004121 0.36971048
0.20497032 0.061083656 0.3698355
0.20675585 0.060990304 0.36993551
0.20868538 0.060807794 0.36996049
0.21004841 0.060436707 0.36996049
0.23541532 0.060906276 0.36996049
0.23682027 0.060949806 0.36989802
0.23865172 0.060996521 0.36974174
0.24057002 0.061064806 0.36971051
0.24298991 0.061154455 0.36968967
0.24536514 0.06123171 0.36958551
0.24729574 0.060880121 0.36956468
0.24925278 0.060953777 0.36954388
0.25121734 0.061028447 0.36952302
0.25307533 0.061076526 0.36933553
0.25489631 0.061115187 0.36908555
0.25666669 0.060992368 0.36891061
0.25864384 0.060794119 0.36874187
0.2608735 0.060952872 0.36861062
0.26270354 0.060791686 0.36854395
0.26427299 0.061038826 0.3688356
0.065231204 0.062862642 0.36808568
0.067024738 0.063090108 0.36814815
0.069008768 0.063115314 0.36816898
0.070998691 0.063144743 0.36821067
0.072978742 0.063164085 0.36818984
0.075035423 0.06294556 0.36816067
0.0769495 0.062816329 0.36819676
0.078946956 0.062847011 0.36823153
0.080971628 0.062897384 0.36837733
0.082985692 0.062937811 0.36846063
0.08499366 0.062971748 0.36850229
0.087014019 0.063013569 0.36858562
0.089027941 0.063048922 0.36862725
0.09105482 0.063092157 0.36871061
0.09306436 0.063121848 0.36871058
0.095087104 0.063159242 0.36875227
0.097098522 0.063188009 0.36873838
0.099180162 0.063052379 0.36868563
0.10108826 0.062826879 0.36858562
0.103067 0.062833309 0.36842936
0.10504118 0.062836938 0.36825237
0.10704663 0.062858954 0.36817941
0.10907932 0.062896021 0.36818981
0.11112762 0.062940896 0.36824194
0.11280423 0.062997013 0.36839813
0.11490273 0.06306652 0.36858562
0.11700628 0.063136801 0.3687731
0.11923771 0.062922053 0.3690387
0.12122264 0.062877931 0.36914805
0.12287568 0.062913723 0.36916888
0.12493694 0.062954769 0.36916888
0.12700181 0.062996574 0.36916888
0.12907082 0.063039258 0.36916888
0.13114361 0.063082702 0.36916888
0.13280489 0.06311807 0.36916888
0.13489555 0.063167892 0.36919662
0.13697602 0.06281215 0.36921054
0.13906519 0.062858574 0.36921051
0.14113462 0.062895089 0.36914808
0.14299946 0.062830783 0.36898559
0.14499077 0.063026711 0.36891058
0.14688294 0.062973402 0.36880434
0.14899637 0.063025795 0.36881474
0.15115708 0.063096821 0.36892936
0.15287828 0.063149363 0.36899185
0.15517317 0.062929884 0.36916366
0.1572229 0.062890969 0.36923137
0.15894012 0.062938206 0.3692522
0.1610685 0.062989071 0.36922443
0.16320796 0.063043155 0.36921051
0.16492859 0.063089035 0.36921051
0.16708474 0.063147299 0.36921051
0.16923442 0.062797807 0.36921054
0.17096806 0.06284561 0.36921054
0.17296426 0.062819548 0.36921054
0.17506021 0.063042447 0.36921054
0.17706698 0.063018121 0.36921054
0.17881872 0.063068911 0.36921054
0.18101458 0.063133389 0.36921051
0.18321668 0.063198872 0.36921054
0.1849702 0.062840782 0.36921051
0.18690944 0.062776469 0.36917481
0.18902028 0.063050099 0.3691012
0.19111353 0.063006558 0.36906478
0.19291095 0.063066125 0.36908558
0.19471346 0.063126542 0.36910641
0.19700103 0.062802702 0.36921051
0.19935657 0.06290739 0.36939806
0.20123488 0.062987812 0.36952302
0.20315385 0.0630797 0.36971051
0.20508008 0.063172437 0.36989802
0.20702581 0.062997915 0.36996049
0.20876217 0.062890299 0.36996052
0.23550616 0.063018881 0.36996046
0.23691195 0.063063852 0.36989799
0.23872437 0.063106805 0.36971048
0.24064487 0.062758826 0.36971051
0.2430522 0.062847354 0.36966884
0.24542157 0.062924832 0.36955428
0.24732338 0.062987626 0.36946052
0.2492951 0.063067339 0.36946052
0.25123206 0.063137382 0.36939806
0.25306931 0.063181654 0.36917931
0.25489065 0.063221529 0.36892933
0.25684428 0.063020021 0.36873561
0.25866768 0.062910683 0.36862728
0.26058036 0.062971063 0.36848149
0.2625891 0.063053802 0.36846063
0.26426145 0.063154757 0.36866894
0.069798812 0.064298987 0.36808568
0.070988245 0.064312667 0.36808568
0.072972201 0.064336009 0.36808571
0.074958012 0.064359993 0.36808568
0.077147454 0.064585768 0.36808568
0.078880705 0.065057784 0.36816067
0.080974884 0.064866506 0.36827317
0.083012566 0.064926468 0.36846063
0.085011572 0.064954139 0.36846063
0.087020203 0.06498795 0.36849186
0.089041829 0.065029934 0.36856475
0.091053657 0.065063424 0.36858562
0.093073808 0.065101303 0.36862728
0.095091395 0.065136209 0.36864811
0.097101144 0.065164588 0.36862728
0.099029742 0.064953424 0.36861059
0.10109106 0.064804398 0.36847454
0.10307472 0.064813927 0.36833563
0.10505608 0.064821914 0.36818287
0.10705483 0.064840339 0.36808565
0.10909706 0.064884022 0.36812735
0.11115514 0.064935781 0.36821067
0.11283547 0.064995468 0.36837733
0.11492373 0.065060981 0.36853006
0.11703221 0.065135784 0.36873147
0.1190166 0.064975053 0.36890703
0.12121188 0.064860798 0.36899185
0.12286833 0.064899467 0.36902308
0.12492958 0.064941756 0.36902308
0.12699446 0.064984806 0.36902308
0.1290489 0.065021463 0.36898139
0.1311141 0.065062553 0.36896059
0.13277513 0.065098986 0.36896059
0.13488577 0.065159984 0.36904392
0.13699959 0.06482137 0.36914805
0.13907614 0.064863138 0.36911333
0.14113526 0.064895898 0.36902308
0.14278902 0.064924583 0.36896059
0.14483573 0.064950392 0.36882174
0.14689656 0.064982034 0.36871061
0.14901172 0.065036587 0.36872447
0.15116291 0.06510552 0.36881474
0.15291023 0.065170713 0.36893976
0.1550592 0.064833581 0.36902308
0.15724243 0.064910904 0.36914808
0.15897802 0.064967029 0.36921054
0.16111927 0.065024279 0.36921051
0.16326573 0.065082461 0.36921054
0.16498715 0.065129757 0.36921054
0.16696905 0.065103203 0.36921054
0.16911276 0.064953454 0.36921051
0.17102922 0.064891174 0.36921051
0.17276759 0.064941153 0.36921051
0.17494637 0.06500461 0.36921051
0.1771311 0.065069064 0.36921051
0.17888372 0.065121435 0.36921051
0.18094726 0.064949118 0.36921051
0.18327019 0.064843893 0.36921054
0.18503769 0.064898424 0.36921054
0.18680967 0.064953685 0.36921054
0.18902057 0.065020174 0.36918971
0.19122729 0.0650841 0.36914808
0.1930152 0.065141939 0.36914805
0.19484088 0.065211505 0.36921054
0.19681276 0.064745001 0.36921051
0.19909617 0.065072216 0.36939806
0.20131052 0.06506291 0.36952305
0.20313326 0.064988263 0.36971051
0.20510727 0.064826071 0.3698355
0.20700619 0.064911082 0.36996049
0.20884123 0.064975001 0.36996049
0.21022099 0.065023467 0.36996049
0.23559979 0.06513381 0.36996049
0.23700647 0.06518025 0.36989799
0.23882005 0.065224558 0.36971051
0.24072774 0.064875014 0.36968967
0.24262075 0.064939141 0.36960635
0.24497819 0.065015934 0.36947441
0.24738227 0.065103859 0.36939803
0.24920562 0.065000489 0.36933556
0.25120807 0.064815432 0.36924177
0.25304544 0.06486088 0.36902308
0.25488845 0.064907193 0.36880437
0.25673741 0.064954504 0.36858562
0.2586582 0.065019444 0.36846063
0.2606523 0.065101877 0.36842936
0.26265481 0.065185487 0.36839813
0.26516309 0.065117113 0.36893559
0.079365797 0.066799767 0.36808571
0.080988094 0.066844083 0.36821067
0.083012156 0.066894434 0.36833563
0.085036829 0.066943146 0.36844674
0.087041967 0.066974871 0.36846063
0.089049906 0.067007311 0.36847454
0.091068864 0.067046739 0.36852312
0.093091145 0.067087099 0.3685717
0.095107414 0.067121811 0.36858562
0.097123094 0.06715478 0.36858562
0.099113345 0.067169435 0.36848149
0.10111371 0.067091644 0.36841378
0.1030876 0.067193545 0.36823153
0.10507581 0.0668106 0.36812735
0.10709125 0.066839591 0.36808568
0.10914043 0.066888377 0.36814818
0.11120261 0.066943571 0.36824194
0.1128805 0.067003086 0.36839813
0.11498064 0.067076899 0.36858562
0.11708581 0.067151524 0.3687731
0.11903825 0.066814415 0.36891893
0.12093712 0.06696105 0.36896059
0.12289002 0.066900991 0.36896059
0.12495179 0.06694451 0.36896059
0.12699561 0.066977389 0.36889812
0.12903802 0.067008793 0.36882171
0.13108595 0.067042179 0.36875227
0.1327693 0.06709104 0.36881474
0.13488759 0.067157738 0.36891893
0.13698962 0.066815048 0.36899185
0.13908316 0.066866167 0.36900225
0.1411612 0.066908762 0.36896059
0.14283955 0.066949524 0.36896059
0.14487626 0.066971093 0.36879393
0.14694893 0.067008644 0.36871061
0.14905937 0.067062333 0.36871061
0.15120013 0.067128301 0.3687731
0.15294808 0.067195475 0.36889809
0.15499257 0.066757411 0.36899185
0.15709308 0.067047566 0.36908558
0.15898181 0.066982538 0.36908558
0.16101314 0.066936456 0.36908558
0.1631289 0.067229107 0.36917481
0.16495651 0.067006826 0.36921054
0.1667611 0.066813096 0.36921054
0.16892381 0.066875458 0.36921051
0.17110667 0.066944517 0.3692418
0.17283136 0.066990308 0.36921054
0.17501126 0.067055702 0.36921051
0.17719707 0.067122117 0.36921054
0.17895055 0.067176089 0.36921054
0.18098801 0.066828452 0.36921051
0.18306582 0.067014627 0.36931989
0.1851701 0.066981204 0.36933553
0.18692254 0.067030698 0.36929384
0.18901205 0.066989407 0.36925739
0.1910457 0.067155048 0.36923134
0.19310683 0.066806972 0.36921054
0.19490062 0.066867024 0.36921054
0.19674928 0.06694489 0.36930427
0.19887879 0.066952065 0.36941051
0.2011127 0.067211598 0.3695105
0.20339096 0.066991501 0.36971051
0.20515226 0.066897281 0.369773
0.20702863 0.066977449 0.36985636
0.20889945 0.067054637 0.36991882
0.21076466 0.067129053 0.36996052
0.21244639 0.066912018 0.36996046
0.21446481 0.067265064 0.36996049
0.23567691 0.066827685 0.36996049
0.23700422 0.066852681 0.36977297
0.23887865 0.066915013 0.36967927
0.24073888 0.066972673 0.36955428
0.24262568 0.067037024 0.36946052
0.24497442 0.067113556 0.3693147
0.24736044 0.06719929 0.36921054
0.24938576 0.067023419 0.36916056
0.25117931 0.066912949 0.36904392
0.25303832 0.066965461 0.36885643
0.25486016 0.067007557 0.36860645
0.2567457 0.067065872 0.36843979
0.25866696 0.067132689 0.36831486
0.26063144 0.066787302 0.3682732
0.26265639 0.066878654 0.3682732
0.26498246 0.067045093 0.36867937
0.081002086 0.068822943 0.36814818
0.083019473 0.068868935 0.36824194
0.085035592 0.068911858 0.36831486
0.087049782 0.068951577 0.3683669
0.089072227 0.068996035 0.36843979
0.091084868 0.069031477 0.36846063
0.093100578 0.069067694 0.36848143
0.095140412 0.06912031 0.36858562
0.09715686 0.069154218 0.36858562
0.099150673 0.069171309 0.36849189
0.10115077 0.069022633 0.36842492
0.1031266 0.069196053 0.36824194
0.10511258 0.068811245 0.36812732
0.10712879 0.068841055 0.36808565
0.10895206 0.068777286 0.36817494
0.11094309 0.069045261 0.36825758
0.11292037 0.069009326 0.36839816
0.11502135 0.0690853 0.36858562
0.11712738 0.069162093 0.3687731
0.11879981 0.068816848 0.36889809
0.12087505 0.068871558 0.36896059
0.12293366 0.068915404 0.36896059
0.12497503 0.068948485 0.36889806
0.12701949 0.068982422 0.3688356
0.12904547 0.069005571 0.36871061
0.13111827 0.069052942 0.36871061
0.13277957 0.069091514 0.36871061
0.13491359 0.069167912 0.36885643
0.13702749 0.068832614 0.36896059
0.13911796 0.068883292 0.36896059
0.14121257 0.06893485 0.36896059
0.14289169 0.068976827 0.36896059
0.14492933 0.068998978 0.36879393
0.14700294 0.069037609 0.36871061
0.14911436 0.06909287 0.36871058
0.15123899 0.069152921 0.36873147
0.15298034 0.068816945 0.36886683
0.1549733 0.068806075 0.36896059
0.15706675 0.069044106 0.36906058
0.15904102 0.069022126 0.36908558
0.1607545 0.069070578 0.36908558
0.16294758 0.06915164 0.36918971
0.16518851 0.068975061 0.36921054
0.16682388 0.068859465 0.36921051
0.16901955 0.068936676 0.36927998
0.17121504 0.069012284 0.36933553
0.17292638 0.069053642 0.36927304
0.17507818 0.069109283 0.36921051
0.17717198 0.069010332 0.36921054
0.17900552 0.068821564 0.36921054
0.18076397 0.068877563 0.36921054
0.18299942 0.068960302 0.36927304
0.18524182 0.069044217 0.36933553
0.18701628 0.069102891 0.36933553
0.1887953 0.069162346 0.36933553
0.19113778 0.069061436 0.36931768
0.1932262 0.068892457 0.36929384
0.19503242 0.068958186 0.36931467
0.1968437 0.069024719 0.36933553
0.19869387 0.06910383 0.36941886
0.20087135 0.068959758 0.36951408
0.20335725 0.068898283 0.36967927
0.20519949 0.068970293 0.36971051
0.20706496 0.069048896 0.369773
0.20893648 0.069128528 0.3698355
0.21079648 0.069203131 0.36986676
0.21266888 0.068867594 0.36993966
0.21499942 0.06895943 0.36996052
0.2172405 0.069213077 0.36996049
0.21876377 0.06994354 0.36996049
0.235268 0.068919621 0.36991882
0.23707773 0.068965442 0.36973134
0.23887907 0.069008276 0.36952302
0.24073972 0.069067679 0.36939803
0.24280384 0.069013916 0.36926413
0.24515656 0.068881072 0.36916056
0.24732026 0.06886898 0.36902308
0.24925107 0.06894435 0.36896059
0.25121033 0.069026537 0.36892936
0.25302714 0.069068879 0.36867937
0.25487098 0.069118068 0.36846063
0.25672072 0.069168366 0.36824194
0.25866431 0.069243148 0.36814818
0.26067308 0.068911746 0.36816898
0.26269889 0.069005959 0.36816898
0.26484984 0.068983629 0.36848563
0.081498958 0.070655569 0.36811069
0.083037019 0.070852593 0.36818981
0.085044809 0.070889376 0.36822456
0.087058455 0.07092949 0.36827317
0.089081988 0.070975907 0.36834958
0.091112137 0.071025677 0.36843979
0.093128458 0.071062967 0.36846063
0.095163681 0.071113035 0.36854395
0.097088933 0.071053997 0.36858562
0.098942041 0.071186714 0.36858562
0.10102936 0.070719942 0.36846063
0.10293388 0.070886925 0.36831063
0.10516819 0.070825934 0.36818984
0.10717645 0.070850573 0.36811695
0.10882968 0.07090015 0.36821067
0.11086518 0.070940383 0.36821067
0.11296129 0.071017578 0.36839813
0.11505657 0.071091674 0.36856475
0.11715014 0.071162656 0.36871061
0.11882956 0.070822768 0.36885643
0.12091915 0.070887074 0.36896059
0.12296472 0.070924111 0.36891893
0.12499981 0.070954174 0.36883563
0.1270375 0.070985027 0.36875227
0.12909313 0.071024857 0.36871058
0.13116685 0.071073554 0.36871061
0.13282891 0.071113221 0.36871061
0.13484377 0.071080931 0.36881998
0.13707836 0.070857897 0.36896059
0.13877457 0.070911512 0.36902308
0.14087768 0.070968419 0.36904392
0.14294522 0.071006216 0.36896059
0.1450166 0.071045041 0.36887726
0.14705841 0.071068719 0.36871061
0.14874783 0.071114071 0.36871061
0.15086421 0.071171731 0.36871061
0.15300821 0.070839077 0.36879393
0.15476161 0.070910521 0.36891893
0.156923 0.070984185 0.36898839
0.15910208 0.071064211 0.36908558
0.16081642 0.071114056 0.36908558
0.16288142 0.071083792 0.36914805
0.16516089 0.070856027 0.36921054
0.16688839 0.070908055 0.36921054
0.16906287 0.070978113 0.36923137
0.17125279 0.071053222 0.36927301
0.17296484 0.071095832 0.36921054
0.17470986 0.071151137 0.36921054
0.17699908 0.071042009 0.36917481
0.17905593 0.070872575 0.36916888
0.18082535 0.070934258 0.36918971
0.18304111 0.071011469 0.36921051
0.185274 0.071093716 0.36925218
0.18707015 0.071162127 0.36929384
0.18885584 0.070817351 0.36933553
0.19106579 0.07088653 0.36929384
0.19326048 0.070948996 0.36921054
0.19505629 0.071012676 0.36921054
0.19687374 0.071083188 0.36924177
0.19874686 0.071172647 0.36936679
0.20117295 0.070968501 0.36947617
0.20338911 0.070965044 0.36958551
0.20526087 0.071049139 0.36966881
0.20709227 0.071118124 0.36966884
0.20883945 0.071020305 0.3696855
0.21079525 0.070854001 0.36974174
0.21267939 0.070937298 0.36980423
0.21501656 0.071033828 0.3698355
0.21736278 0.071131676 0.36986676
0.21926923 0.071218327 0.36992925
0.22071284 0.071702205 0.36996049
0.23535648 0.071037181 0.36989799
0.23712726 0.071072355 0.36964798
0.23892273 0.071114458 0.36942929
0.24074343 0.071163595 0.36924177
0.24309884 0.071107656 0.36912724
0.2452354 0.070898421 0.36899632
0.24734618 0.070977375 0.36889806
0.24929182 0.071059011 0.36885643
0.25118807 0.071125634 0.36873147
0.25305355 0.070761383 0.36858562
0.25489795 0.070811816 0.3683669
0.25674832 0.070863307 0.36814815
0.25818732 0.07049343 0.36808568
0.26324296 0.07073319 0.36808568
0.26509872 0.071041442 0.36838564
0.083050624 0.07283359 0.36811695
0.08506763 0.072878934 0.36818981
0.087075286 0.07291472 0.36821067
0.08909601 0.07295958 0.36827317
0.091127343 0.073011413 0.3683669
0.093162484 0.073064163 0.36846063
0.095185071 0.073105246 0.36849189
0.096823424 0.07315243 0.36858562
0.098956086 0.07301911 0.36858562
0.10084778 0.072816752 0.36854395
0.10283469 0.072827235 0.3684051
0.10480719 0.072827481 0.36821067
0.10683717 0.072867095 0.36821067
0.10887006 0.072907522 0.36821067
0.11090641 0.07294888 0.36821067
0.1129778 0.073011644 0.36831483
0.11508004 0.073092006 0.36850229
0.11718747 0.073173158 0.36868978
0.11885714 0.072828323 0.36880434
0.120944 0.072892331 0.36889812
0.12299352 0.072932482 0.36886683
0.12504686 0.072973646 0.3688356
0.12709263 0.073009454 0.3687731
0.12914203 0.073046245 0.36871061
0.13121669 0.073096313 0.36871061
0.1328795 0.073137082 0.36871061
0.13514864 0.073057137 0.36890703
0.13713072 0.07288564 0.36896059
0.13885118 0.072953105 0.36908558
0.14094786 0.073007509 0.36908558
0.14300038 0.073038109 0.36896059
0.14507273 0.073078007 0.36887729
0.14711554 0.073102303 0.36871061
0.14880578 0.073148943 0.36871061
0.15079524 0.072971888 0.36871058
0.15305921 0.072872959 0.3687731
0.15481338 0.072946437 0.36889809
0.15697269 0.073020779 0.36896059
0.15915132 0.073102318 0.36905432
0.16087997 0.073159784 0.36908558
0.16316244 0.073060028 0.36912128
0.16521715 0.072901554 0.36918971
0.16695483 0.072959222 0.36921051
0.16900897 0.072920986 0.36921051
0.17109369 0.073200569 0.36917481
0.17301501 0.073143989 0.36916888
0.17473119 0.073188424 0.36910638
0.17687446 0.072836213 0.36904392
0.1790577 0.072904989 0.36902308
0.18084779 0.072976664 0.36908558
0.1829236 0.072982892 0.36918554
0.18506631 0.073226556 0.36921054
0.18710491 0.073215172 0.36921054
0.18886964 0.07286381 0.36921051
0.19098589 0.07283549 0.36921051
0.19315328 0.073135532 0.36921051
0.19513766 0.073089428 0.36921051
0.19684251 0.072986029 0.36921054
0.19874619 0.072812818 0.36924177
0.20062593 0.07290525 0.36936679
0.20295054 0.073009826 0.36946055
0.20523202 0.073097192 0.36946052
0.20709848 0.073180437 0.36952305
0.20903817 0.073012039 0.36956054
0.2108198 0.072926641 0.36962715
0.21269256 0.073008247 0.36966881
0.21501224 0.073101357 0.36966884
0.21734592 0.072783411 0.36971051
0.21927109 0.072878167 0.36980423
0.22122197 0.072980158 0.36992925
0.22314346 0.073486969 0.36996049
0.23280311 0.073620342 0.36996046
0.23492241 0.073122457 0.36980769
0.23703995 0.07299608 0.36951056
0.23894775 0.072796971 0.36933553
0.24080987 0.072859645 0.36921054
0.24267788 0.072923243 0.36908558
0.24501507 0.073002391 0.36891893
0.24741717 0.073099539 0.3688356
0.2493286 0.073173165 0.36874187
0.25128967 0.073260419 0.36871061
0.25309864 0.072881132 0.36848149
0.25492242 0.072926864 0.36823151
0.25627434 0.072112687 0.36808568
0.26545084 0.0729983 0.36814818
0.26712698 0.072801925 0.36908555
0.26827127 0.073311329 0.36921054
0.083461799 0.074031606 0.36808568
0.085227653 0.074379131 0.36808568
0.087088108 0.074897237 0.36812735
0.089107454 0.074941926 0.36818287
0.091138326 0.07499443 0.36827317
0.092951812 0.074938141 0.36840707
0.094912209 0.075198434 0.36846063
0.096843548 0.075145565 0.36852312
0.09887366 0.075190112 0.36855781
0.10088003 0.074819572 0.36852312
0.10287739 0.074837387 0.36841896
0.10484684 0.074834824 0.36821067
0.1068716 0.074871257 0.36818984
0.10889298 0.074904248 0.36814815
0.11094245 0.074955225 0.36818981
0.11299864 0.07500913 0.36824194
0.11509162 0.07508526 0.36839816
0.11719944 0.07516861 0.36858562
0.11887255 0.074827246 0.36871064
0.1209518 0.074888028 0.36878005
0.12301672 0.074938439 0.36879393
0.12509064 0.074992739 0.36882174
0.12716363 0.075045086 0.3688356
0.12879938 0.075072765 0.3687731
0.13085762 0.075114101 0.36872447
0.13288015 0.075019501 0.36881059
0.13508819 0.074857436 0.36893976
0.13720778 0.074928299 0.36902308
0.13890573 0.07498493 0.36908558
0.14100343 0.075040817 0.36908558
0.14305694 0.075072236 0.36896059
0.14512207 0.075108953 0.36885643
0.14717416 0.075138181 0.36871061
0.14882737 0.075166941 0.36861685
0.15105501 0.074931309 0.36864811
0.15310329 0.074904889 0.36873147
0.15484944 0.074976109 0.3688356
0.15703024 0.075062439 0.3689467
0.15918441 0.075134248 0.36898145
0.16083246 0.075031266 0.36903557
0.16308229 0.074864753 0.36908558
0.1652378 0.074932382 0.36908558
0.16696653 0.074987337 0.36908558
0.16910438 0.075044379 0.36902308
0.17126162 0.07510899 0.36899182
0.17298889 0.075160287 0.36896059
0.17473465 0.075218707 0.36896059
0.17688799 0.074871987 0.36891896
0.17908178 0.074946925 0.36891893
0.18085201 0.075012095 0.36893976
0.18298154 0.075099245 0.36900747
0.18509108 0.074866936 0.36913556
0.18716814 0.074872337 0.36921054
0.18894939 0.074936673 0.36921054
0.19073537 0.075001873 0.36921054
0.19297473 0.075084619 0.36921051
0.19522116 0.075168647 0.36921054
0.1971041 0.074990466 0.36921054
0.19881471 0.074889317 0.36921051
0.20069547 0.074984364 0.36933553
0.20303856 0.075098239 0.36946055
0.20530331 0.074769601 0.36946052
0.20713568 0.074842162 0.36946052
0.20897359 0.07491567 0.36946052
0.21081704 0.074990131 0.36946052
0.2126662 0.075065553 0.36946052
0.21502244 0.075173914 0.36952302
0.2173686 0.074862666 0.36958551
0.21928824 0.074958146 0.36966884
0.22122727 0.07505881 0.369773
0.22306104 0.07498388 0.3698605
0.22509399 0.074835874 0.36996049
0.22699088 0.074918106 0.36996049
0.22874241 0.07513582 0.36996046
0.23080438 0.075085752 0.36996049
0.23270148 0.07516481 0.36992925
0.23492841 0.075215928 0.36964801
0.23725767 0.075021438 0.36938554
0.23899047 0.074904345 0.36923134
0.24083973 0.074964456 0.36908555
0.24272226 0.075034238 0.36898145
0.24478188 0.075102843 0.36881778
0.24695553 0.074906982 0.36873141
0.24940144 0.074878082 0.36871061
0.25132081 0.074954569 0.36861685
0.25316125 0.075006858 0.36839813
0.25498593 0.075053856 0.36814818
0.2667585 0.074827537 0.36839813
0.26837572 0.075045303 0.36921054
0.089315385 0.076727264 0.36808568
0.091150142 0.076978683 0.36817941
0.093016841 0.077103727 0.36823568
0.094980337 0.077004611 0.36836067
0.096848115 0.077127203 0.36839813
0.098885894 0.077178776 0.36846063
0.1008963 0.076811612 0.36843979
0.10288627 0.076824039 0.36830792
0.10488167 0.076840259 0.36818981
0.10688708 0.076863185 0.36809954
0.10891705 0.076902911 0.36808565
0.11095873 0.076949365 0.36809954
0.11302704 0.077012658 0.36818981
0.11509575 0.077074058 0.36826625
0.11719268 0.077152379 0.36841896
0.11878639 0.077051044 0.36853561
0.12095619 0.076881871 0.36864808
0.12303761 0.076943807 0.36871061
0.12510256 0.076993681 0.36871061
0.12718195 0.077050962 0.36874184
0.12887265 0.077111982 0.3688356
0.13094942 0.077164657 0.3688356
0.13312499 0.076987281 0.36888558
0.13504286 0.076788358 0.36896059
0.13709693 0.077078149 0.36904985
0.13896187 0.077019356 0.36908558
0.14103399 0.077062175 0.36901614
0.14310704 0.077104598 0.36893976
0.14514585 0.077127807 0.36876616
0.14720114 0.077159204 0.36862728
0.14875606 0.077018216 0.36851063
0.1509396 0.076832078 0.36848149
0.15310571 0.076916978 0.36858562
0.15484768 0.076988019 0.36867937
0.15701248 0.077068612 0.36875227
0.15921459 0.077165544 0.36889809
0.16102491 0.076984085 0.36893561
0.16310126 0.076893799 0.36897448
0.16525103 0.07696037 0.36896059
0.16697069 0.07701242 0.36893976
0.16912161 0.077076808 0.36890507
0.17126168 0.077135019 0.3688356
0.17288718 0.077015981 0.36878559
0.17495863 0.076752737 0.36876059
0.17704165 0.076980174 0.36871061
0.17905721 0.076968528 0.36871061
0.18086325 0.077050596 0.36880434
0.18267442 0.077133536 0.36889809
0.1850332 0.076926887 0.36899185
0.18716471 0.076911487 0.36904392
0.18895693 0.076981947 0.36906472
0.190754 0.077053308 0.36908558
0.1928775 0.077029966 0.36908558
0.1952402 0.076814525 0.36911684
0.1970769 0.076897286 0.36917931
0.1989024 0.076974511 0.36921054
0.2007843 0.077072196 0.36933553
0.20267266 0.077170879 0.36946052
0.2050564 0.076953523 0.36946055
0.20720495 0.076928534 0.36941889
0.209032 0.076999739 0.36939803
0.21086454 0.077071927 0.36937723
0.21261883 0.076979049 0.36938554
0.21501558 0.076826841 0.36937723
0.21735707 0.076930456 0.36939806
0.21928322 0.077030689 0.36949176
0.22123514 0.077138491 0.36961675
0.22327273 0.076996364 0.36973551
0.22507088 0.07690993 0.36975217
0.22696801 0.076994441 0.36975217
0.2288717 0.077080034 0.36975217
0.23068282 0.076994069 0.36976051
0.23293464 0.076748617 0.36971051
0.2350947 0.076973245 0.36946052
0.23717155 0.07694602 0.36924177
0.23902929 0.077011123 0.36911681
0.24089296 0.077077337 0.36899185
0.24278322 0.077151224 0.36889809
0.24465923 0.07721968 0.3687731
0.24688794 0.076890469 0.36871061
0.2491042 0.077092245 0.36863247
0.25136465 0.077074505 0.36850229
0.25325614 0.077143453 0.36835647
0.25508556 0.076770924 0.36814818
0.26699713 0.077022009 0.36854395
0.268619 0.076820113 0.36939803
0.091287233 0.078431785 0.36808571
0.093183704 0.078613043 0.36814818
0.095211901 0.07905677 0.36816898
0.096831828 0.079092033 0.36818984
0.098869324 0.079144888 0.3682524
0.10089312 0.079185121 0.36825237
0.10289862 0.078983508 0.36819282
0.10490265 0.078836598 0.36811692
0.1065104 0.078461409 0.36808568
0.11180601 0.078575969 0.36808568
0.11304054 0.079006769 0.36808568
0.11511827 0.079075731 0.36818981
0.11718381 0.079134442 0.36824194
0.11894859 0.078963399 0.36838564
0.1209392 0.078861959 0.36844674
0.12301811 0.078923926 0.36850229
0.12511122 0.078992903 0.36858562
0.12721603 0.079067416 0.36868978
0.12888911 0.079118811 0.36873147
0.1308855 0.079084128 0.36880437
0.1330964 0.0788569 0.36889809
0.13478783 0.078914918 0.36896059
0.13687801 0.078971647 0.36896059
0.13897231 0.079029374 0.36896059
0.14105542 0.07907927 0.36891893
0.14310205 0.079107851 0.3687731
0.14516009 0.079142101 0.36864808
0.14719643 0.079163909 0.36846063
0.14893487 0.078955747 0.36838564
0.15094337 0.078842953 0.36833566
0.15308386 0.078916788 0.36837733
0.15482144 0.078987449 0.36846066
0.15700246 0.079078324 0.36857173
0.15909967 0.079004124 0.3686856
0.16093121 0.078834623 0.3687731
0.16294007 0.078994736 0.3688356
0.1650153 0.078903951 0.36886057
0.16696718 0.079033904 0.3687731
0.1691056 0.079094134 0.36871061
0.17126349 0.079162128 0.36867937
0.17306346 0.078969032 0.36863559
0.1748759 0.078972295 0.36856773
0.17700148 0.078836694 0.36861688
0.17910559 0.079021752 0.36864814
0.18089704 0.079099439 0.36871061
0.1826047 0.079011463 0.36878559
0.18497401 0.078881331 0.36893976
0.18720551 0.07896933 0.36896059
0.18898778 0.079037189 0.36896059
0.19077471 0.079105943 0.36896059
0.19315486 0.079027317 0.36899632
0.19528945 0.078882731 0.36904392
0.197127 0.07896778 0.36910641
0.1989926 0.079062715 0.36921051
0.20075026 0.078981154 0.36928552
0.20271224 0.078832 0.36939803
0.20497316 0.078917272 0.36935636
0.20725323 0.079008386 0.36933553
0.20907521 0.079079263 0.3693043
0.21088468 0.07914447 0.36924177
0.21281239 0.078974225 0.36923552
0.21501854 0.078897208 0.36921051
0.21739744 0.079016984 0.36929384
0.21923587 0.07895156 0.36941054
0.22126225 0.078809835 0.36952302
0.22320336 0.078914404 0.36961675
0.22515181 0.079020195 0.36971051
0.22705013 0.079107031 0.36971051
0.228955 0.079194993 0.36971051
0.23093326 0.079027906 0.3696855
0.23267041 0.078917243 0.36956468
0.23494884 0.078988038 0.36936334
0.2372396 0.079061873 0.36916888
0.23909838 0.079128787 0.36904392
0.24096648 0.078778483 0.36896059
0.2428783 0.07886067 0.36889809
0.24475551 0.078930661 0.3687731
0.24668092 0.079015225 0.36871061
0.24859223 0.079094335 0.36861688
0.25099316 0.079195462 0.36850229
0.25332558 0.079273768 0.36827317
0.25469825 0.078889817 0.36812735
0.26716399 0.079198614 0.36858562
0.26895329 0.079051919 0.36966884
0.097239673 0.08068563 0.36808568
0.099063046 0.080923222 0.36808568
0.10088865 0.081161603 0.36808568
0.10258614 0.08063852 0.36811066
0.10451318 0.080029353 0.36808568
0.11347717 0.080226839 0.36808568
0.11513775 0.081076115 0.36809957
0.11722253 0.081149347 0.36821067
0.11877903 0.081025153 0.36821067
0.12093236 0.080848336 0.36827317
0.12302413 0.080920279 0.3683669
0.12511392 0.080988757 0.36843979
0.12720099 0.081053622 0.36849189
0.1289032 0.081124648 0.36861688
0.13113455 0.081033505 0.36872846
0.13309984 0.080859318 0.36875227
0.13478386 0.08091417 0.36879393
0.13687411 0.080972269 0.36879393
0.13895291 0.081022359 0.36875224
0.14103061 0.081070453 0.36869669
0.14311476 0.081121206 0.36864814
0.14505845 0.081047565 0.3685075
0.14699121 0.081029475 0.36843562
0.14886364 0.080807865 0.36827317
0.15095724 0.080859579 0.36821067
0.15308082 0.080926105 0.36821067
0.15482301 0.08100079 0.3683044
0.15701465 0.081099384 0.36843979
0.15929475 0.080957823 0.36858562
0.16096531 0.080870353 0.36868978
0.16301453 0.080840372 0.36871058
0.16510203 0.081131287 0.36871058
0.16700333 0.081074797 0.36868978
0.16912974 0.081130363 0.3685995
0.17116831 0.081019275 0.36851063
0.17296505 0.08082594 0.36846063
0.17471132 0.080888763 0.36846063
0.17690015 0.080968536 0.36846063
0.17914075 0.081070162 0.36855435
0.18094823 0.081156701 0.36864811
0.18283616 0.080997154 0.36873561
0.18499881 0.080931246 0.36882174
0.18724866 0.08102908 0.36887726
0.18903162 0.081098713 0.36887726
0.19072701 0.081000894 0.36888558
0.19290318 0.080769554 0.36896059
0.19506888 0.081023201 0.36896059
0.19717377 0.081037924 0.36902308
0.19905147 0.0811399 0.36914808
0.20102195 0.080998078 0.36928552
0.20277257 0.080913916 0.36933553
0.20504233 0.081004418 0.36930779
0.20729248 0.081085734 0.36923137
0.20902094 0.080988556 0.36921054
0.2109468 0.080820486 0.36921054
0.21279827 0.080901802 0.36921054
0.21465552 0.080984175 0.36921054
0.2169857 0.081088707 0.36921051
0.21952459 0.080989204 0.36941054
0.22136883 0.080926247 0.36952302
0.22331767 0.081036024 0.36962715
0.2251575 0.080967925 0.36971051
0.22713846 0.080806278 0.36971051
0.22902505 0.080889262 0.36967927
0.23085952 0.080952913 0.36955428
0.23271918 0.081024542 0.36946052
0.23499429 0.081095688 0.3692522
0.23728384 0.081170715 0.36905435
0.23916377 0.081246346 0.36896059
0.24105968 0.080906793 0.36891893
0.24294539 0.080982126 0.36881474
0.24483752 0.081058651 0.36871061
0.24669714 0.080982491 0.36871061
0.24867208 0.08080408 0.36858562
0.25061256 0.080892973 0.36852312
0.25297374 0.080981918 0.36833563
0.25480017 0.081032321 0.36808568
0.26745743 0.080990583 0.3688356
0.26912463 0.081239328 0.36971051
0.11501627 0.083010234 0.36808568
0.11699641 0.083225653 0.36811066
0.11899199 0.082973018 0.36821067
0.12096336 0.082860582 0.36821067
0.12302449 0.082913198 0.36821067
0.12510858 0.082979351 0.36826625
0.12720895 0.083054394 0.3683565
0.12889682 0.083117887 0.36843979
0.13089724 0.083088771 0.36852312
0.13309704 0.082857996 0.36858562
0.13499153 0.082976557 0.36851063
0.13700254 0.082876399 0.36853561
0.13891518 0.083003953 0.36849189
0.1410019 0.083058797 0.36846063
0.1431047 0.083121702 0.36846063
0.14479049 0.083172902 0.36846063
0.14697304 0.08292035 0.36839816
0.14892094 0.082847901 0.36825231
0.15102412 0.08290568 0.36821067
0.15314889 0.082973897 0.36821067
0.1548526 0.083029389 0.36821067
0.1570347 0.083124906 0.36832178
0.15922046 0.082816914 0.36846063
0.16099189 0.082903057 0.36858562
0.16275439 0.082982987 0.36867934
0.16492558 0.083064869 0.36871061
0.16703184 0.083112709 0.36858562
0.169012 0.083095625 0.36856061
0.17116635 0.08309754 0.36846063
0.1730441 0.082891129 0.36846063
0.17479146 0.082955576 0.36846063
0.17698167 0.083037406 0.36846063
0.17917801 0.08312054 0.36846063
0.18098447 0.082801335 0.36858562
0.18281329 0.082897581 0.36871061
0.1850291 0.082984127 0.36871061
0.18726745 0.083079025 0.36874187
0.18906692 0.083157457 0.3687731
0.19096629 0.082997449 0.3688356
0.19266278 0.08290007 0.3688356
0.19496286 0.083014555 0.36893284
0.19726761 0.083129011 0.36902308
0.19912729 0.082814574 0.36914808
0.20101239 0.082919732 0.36927301
0.20286953 0.083011895 0.36933553
0.20492733 0.08300209 0.36926052
0.20710942 0.083255574 0.36921054
0.20926002 0.082999833 0.36913556
0.21098965 0.082903251 0.36910641
0.21282995 0.082982056 0.36908558
0.21468793 0.08306659 0.36908558
0.21674216 0.082896113 0.36916888
0.21868657 0.083010748 0.36929384
0.22079238 0.082921371 0.36948553
0.22313941 0.083225913 0.36961049
0.2254394 0.083011083 0.3696855
0.22721322 0.082919173 0.36964801
0.22906871 0.08299277 0.36956468
0.23093008 0.083067454 0.36948135
0.23277099 0.083133876 0.36935639
0.23500985 0.082775094 0.36912718
0.23732024 0.082858816 0.36896059
0.2392008 0.082935974 0.36886683
0.24108779 0.083014339 0.3687731
0.24300176 0.083101079 0.36871061
0.24496409 0.083203107 0.36871061
0.24695022 0.083031259 0.36861059
0.24878728 0.082948066 0.36856475
0.25070104 0.083030045 0.36846063
0.25303042 0.0831104 0.36822453
0.26781514 0.082379073 0.36921054
0.2687692 0.082969844 0.369773
0.11502221 0.084912412 0.36808568
0.11687326 0.085160956 0.36808565
0.11891702 0.084807254 0.36808568
0.120975 0.084860146 0.36808565
0.12303648 0.084914044 0.36808568
0.1251234 0.084983498 0.36814818
0.12721451 0.085054033 0.36821067
0.12890628 0.085121341 0.36830443
0.13113469 0.085031934 0.36840707
0.13309573 0.084857531 0.36841896
0.13476479 0.084905535 0.36841896
0.13684486 0.084960178 0.36839122
0.13893406 0.085019112 0.36837733
0.14103323 0.085082479 0.36837733
0.14313671 0.085146956 0.36837733
0.14473662 0.085034922 0.36838564
0.14689702 0.084842078 0.36831483
0.14897136 0.084885582 0.36821067
0.15109254 0.084954359 0.36821067
0.15321857 0.085024297 0.36821067
0.15492329 0.08508119 0.36821067
0.15706809 0.085158259 0.36823153
0.15926646 0.084858805 0.36839816
0.16102047 0.084937543 0.36848149
0.16277887 0.085017093 0.36856481
0.16495846 0.085104965 0.36861336
0.16701657 0.085008122 0.36858562
0.16882889 0.084826469 0.36858562
0.17094545 0.084877729 0.36846063
0.17312509 0.08495903 0.36846063
0.17487352 0.085025109 0.36846063
0.17706513 0.085109018 0.36846063
0.17926288 0.08519426 0.36846063
0.18107022 0.084877074 0.36858562
0.18290024 0.084975772 0.36871061
0.18485853 0.084935285 0.36871058
0.18689612 0.085136414 0.36871058
0.18910749 0.084810682 0.36871061
0.1909451 0.084906146 0.36880437
0.19275568 0.084988154 0.3688356
0.19505002 0.085102387 0.3689189
0.19736366 0.08522296 0.36902308
0.19922431 0.08491078 0.36914805
0.20107663 0.085004233 0.36921051
0.20291193 0.085089117 0.36923137
0.20462997 0.084993079 0.36921054
0.20696837 0.084832817 0.36914805
0.20923489 0.08492253 0.36908558
0.21108267 0.085007027 0.36908558
0.21291813 0.085085399 0.36905432
0.21479554 0.085179351 0.36908558
0.21678515 0.085034892 0.36916056
0.218621 0.084975712 0.36927304
0.22061099 0.085108615 0.36946055
0.2230214 0.08482603 0.36958551
0.22540811 0.084948272 0.36961675
0.22729081 0.085034579 0.36958551
0.22916028 0.085114844 0.36952305
0.23101643 0.085189059 0.36942926
0.23281926 0.085242853 0.36924177
0.23494844 0.084778339 0.3690387
0.23717459 0.085084535 0.36885348
0.23923826 0.085045725 0.36873141
0.24106586 0.084966317 0.36871061
0.24310422 0.08481703 0.36871061
0.24500549 0.084899575 0.36861685
0.24693447 0.084990658 0.36855435
0.24884951 0.085075878 0.36846063
0.2508139 0.085176773 0.36842939
0.25265741 0.08523564 0.36821067
0.2540428 0.084858008 0.36808568
0.26823327 0.085072108 0.36954388
0.11528339 0.08714743 0.36808568
0.11692537 0.087189354 0.36808565
0.11897003 0.086836554 0.36808565
0.12102909 0.086890742 0.36808565
0.12515505 0.086886048 0.36808565
0.12707296 0.087183706 0.36813927
0.12893175 0.087136127 0.36821067
0.13089736 0.086967543 0.36824638
0.13311458 0.086870253 0.36830443
0.13477257 0.086912006 0.3682732
0.13684778 0.086964734 0.36823151
0.13893463 0.087023444 0.36821067
0.14103404 0.087088346 0.36821067
0.14313778 0.087154359 0.36821067
0.14491048 0.086970843 0.36823568
0.14692882 0.086869739 0.36822456
0.1490404 0.086935632 0.36821067
0.15114562 0.086996242 0.36816898
0.15326409 0.087062933 0.36814818
0.15499584 0.087136038 0.36821067
0.15711802 0.086798467 0.36821067
0.15930064 0.086895481 0.36830443
0.16107345 0.086985916 0.36842939
0.16280967 0.087055169 0.36846063
0.16498698 0.087143511 0.36850229
0.16724351 0.086986303 0.36853561
0.16890924 0.086894222 0.36858562
0.17106579 0.086966485 0.36854395
0.17320819 0.087030113 0.36846063
0.17495777 0.087097831 0.36846063
0.17684643 0.086895399 0.36846063
0.17908399 0.086934 0.36848563
0.18117341 0.086963058 0.36861685
0.18298921 0.087056778 0.36871061
0.18476348 0.087129407 0.36871061
0.18715264 0.087069191 0.3687999
0.18926458 0.086927079 0.3688356
0.19105546 0.087002806 0.3688356
0.19287294 0.087089479 0.36887726
0.19468161 0.086760379 0.36892933
0.19695656 0.086865954 0.36896059
0.19928987 0.086995177 0.36908558
0.20114325 0.087090917 0.36914808
0.2029853 0.087180473 0.36917931
0.20487066 0.087004736 0.36913556
0.20703027 0.086922228 0.36907166
0.20929401 0.087012477 0.36900225
0.2111308 0.087094247 0.36898139
0.21298714 0.086768895 0.36902308
0.21488371 0.086871997 0.36908558
0.21678692 0.086976364 0.36914808
0.21873376 0.087096661 0.36927301
0.2207253 0.087232947 0.36946052
0.2226641 0.086930104 0.36958551
0.22490764 0.086935312 0.36958551
0.2270924 0.087151289 0.36958551
0.22925654 0.08682245 0.36952305
0.23109427 0.086890891 0.36939806
0.2329179 0.086953208 0.3692418
0.23470701 0.087001905 0.36902308
0.23683874 0.087000608 0.36888558
0.23908274 0.087260418 0.36873561
0.2413694 0.087030649 0.36868563
0.24316663 0.086940579 0.36860645
0.245076 0.087027706 0.36852312
0.24699219 0.087116264 0.36843979
0.24893695 0.086792052 0.36842939
0.25079623 0.086858243 0.36824194
0.2525357 0.086789548 0.36812735
0.26814219 0.087180272 0.36921054
0.116968 0.088814162 0.36808565
0.11902422 0.088868462 0.36808568
0.12108439 0.088923939 0.36808565
0.12314809 0.088980474 0.36808568
0.1248019 0.089026526 0.36808568
0.12687287 0.089085191 0.36808565
0.12898043 0.08916758 0.36817944
0.13116604 0.088933021 0.36821067
0.13314243 0.08888974 0.36821067
0.1348124 0.088940054 0.36821067
0.13690397 0.089004077 0.36821067
0.13899972 0.08906924 0.36821067
0.14110033 0.089135699 0.36821067
0.14319164 0.088793196 0.36821067
0.14487895 0.088847958 0.36821067
0.14699265 0.088917583 0.36821067
0.14911097 0.088988394 0.36821067
0.15080939 0.089046001 0.36821067
0.15293725 0.089119218 0.36821067
0.15507001 0.089193664 0.36821067
0.15676509 0.08884225 0.36821067
0.1589077 0.088918813 0.36821067
0.161092 0.089016758 0.368294
0.16285166 0.08910016 0.36837733
0.16490766 0.088955402 0.36844277
0.16719747 0.088868476 0.36846063
0.16894853 0.088942133 0.36849186
0.17073269 0.089031897 0.36858562
0.17290525 0.089112081 0.36856481
0.17507368 0.08918862 0.36852312
0.17690016 0.089010045 0.36851063
0.17891932 0.088834867 0.36857
0.18111666 0.089174688 0.36869273
0.18308057 0.08914113 0.36871061
0.18486872 0.088813037 0.3687731
0.1869442 0.088830903 0.3688356
0.18914656 0.089113966 0.36893559
0.19121663 0.089125454 0.36896059
0.19301422 0.08920414 0.36896059
0.19479676 0.088864267 0.36896059
0.19693853 0.088854797 0.36896059
0.19914533 0.089182787 0.36897844
0.20108581 0.088995643 0.36903557
0.20301731 0.088843048 0.36908558
0.20483102 0.088920362 0.36905432
0.20688665 0.088912308 0.36896059
0.2091068 0.089186132 0.36896059
0.21124712 0.089211203 0.36899185
0.21312259 0.088895239 0.36906472
0.21499652 0.088990927 0.36908558
0.21692564 0.089107998 0.36918971
0.21882612 0.088795938 0.36927301
0.22081888 0.088934943 0.36946052
0.22278224 0.089060202 0.36958551
0.22469632 0.089164183 0.36961675
