# .PCD v0.7 - Point Cloud Data file format
VERSION 0.7
FIELDS x y z
SIZE 4 4 4
TYPE F F F
COUNT 1 1 1
WIDTH 1373
HEIGHT 1
VIEWPOINT 0 0 0 1 0 0 0
POINTS 1373
DATA ascii
0.079015501 -0.072894149 0.37848043
0.081068106 -0.072925434 0.3785221
0.083123647 -0.072957419 0.37856373
0.085191101 -0.07299795 0.37864706
0.086803563 -0.072993949 0.37852207
0.088851638 -0.07301566 0.37850127
0.090889402 -0.073027939 0.37842834
0.092939354 -0.073049024 0.37839708
0.094999254 -0.073076732 0.37839708
0.097062044 -0.073105179 0.37839708
0.099127442 -0.073134273 0.37839705
0.10078187 -0.07315807 0.37839708
0.10285266 -0.073188461 0.37839708
0.10492624 -0.073219538 0.37839708
0.10711145 -0.073072791 0.37837029
0.10905831 -0.072862767 0.37833455
0.11103972 -0.072794728 0.3783502
0.11306585 -0.073053919 0.37838814
0.11490428 -0.072961099 0.37835541
0.11696002 -0.0729734 0.37823737
0.11894952 -0.073156819 0.37815958
0.12069956 -0.073829286 0.3780846
0.12954943 -0.073993117 0.3780846
0.13080309 -0.073194757 0.3780846
0.13293646 -0.072836369 0.3781471
0.13506022 -0.072877973 0.37814713
0.13677374 -0.072917864 0.37817836
0.13891715 -0.072967008 0.37820959
0.14106515 -0.073017046 0.37824082
0.14278948 -0.073058926 0.37827206
0.14497463 -0.073124617 0.37837622
0.14715722 -0.073187113 0.37845957
0.14893059 -0.073249176 0.37858456
0.15098956 -0.072785705 0.37863144
0.15315016 -0.073087104 0.37879878
0.15511866 -0.07303527 0.37891784
0.15689386 -0.073091589 0.37900117
0.15897213 -0.073040098 0.37902197
0.16125987 -0.072782218 0.379022
0.16299957 -0.072818294 0.37899077
0.16499348 -0.072773233 0.37893453
0.16706684 -0.07297311 0.37883452
0.16905241 -0.072922483 0.37874079
0.17079279 -0.072955385 0.37867832
0.17297553 -0.072998427 0.3786054
0.17520179 -0.073058531 0.3786158
0.17701289 -0.073117845 0.37867832
0.1788139 -0.07317178 0.37870955
0.180907 -0.073158361 0.37878451
0.1831833 -0.073023908 0.3788881
0.18518907 -0.072964989 0.37891784
0.1869957 -0.073015794 0.37891784
0.18883802 -0.07307931 0.37898037
0.19080742 -0.07285881 0.37900117
0.19316833 -0.072890349 0.3791095
0.19533521 -0.072892949 0.37924075
0.19723395 -0.072971553 0.37936574
0.19912243 -0.073044911 0.37945947
0.20096722 -0.073101044 0.37945947
0.20280035 -0.073151983 0.37942821
0.20485358 -0.073105738 0.37928447
0.20706518 -0.073336497 0.37923449
0.20915742 -0.072881855 0.37916782
0.21104132 -0.07294596 0.37918866
0.2129427 -0.073014967 0.37923029
0.21488558 -0.073096931 0.37933448
0.21679555 -0.072744273 0.37939698
0.21872766 -0.07281936 0.37945947
0.22063003 -0.072883412 0.37945947
0.22283688 -0.072877251 0.37948447
0.22471702 -0.073194891 0.37962613
0.2268087 -0.073053196 0.37970942
0.22871847 -0.073378131 0.37987605
0.23100616 -0.072899885 0.37995937
0.23341972 -0.072555214 0.3799594
0.23535445 -0.072193295 0.3799594
0.23733132 -0.072696447 0.3799594
0.23929751 -0.072768532 0.3799594
0.24117151 -0.072811678 0.37980318
0.24307117 -0.072861746 0.37967819
0.24497676 -0.072912775 0.3795532
0.2468885 -0.072964787 0.37942821
0.24880642 -0.073017791 0.37930322
0.25073069 -0.0730718 0.37917826
0.25261977 -0.073114768 0.37899077
0.25461978 -0.073188886 0.37895951
0.25662741 -0.073264152 0.37892827
0.25887713 -0.072893202 0.37877202
0.26108679 -0.073058769 0.37856895
0.26332924 -0.072996445 0.37829292
0.26527503 -0.073049828 0.37812626
0.26727262 -0.072251335 0.3780846
0.26937318 -0.072777279 0.3780846
0.27102762 -0.072867639 0.37820959
0.27279207 -0.073170833 0.37870955
0.27400312 -0.072756425 0.37945947
0.053365681 -0.071365267 0.3780846
0.055124816 -0.071124457 0.37816796
0.057012275 -0.071008049 0.37818876
0.059046537 -0.071039766 0.37827209
0.061086882 -0.071076043 0.37837625
0.063121133 -0.071103081 0.37842834
0.065157793 -0.07113076 0.37848043
0.067194745 -0.071156979 0.37852207
0.068802886 -0.07115458 0.37842834
0.070829846 -0.071168236 0.37839708
0.072858199 -0.071182497 0.37836584
0.074876048 -0.071185589 0.37827209
0.076913841 -0.071206927 0.37827206
0.079066738 -0.071054496 0.37826315
0.080986969 -0.070841424 0.37825122
0.083049513 -0.070880219 0.37833458
0.085096382 -0.070903912 0.37833455
0.087038361 -0.070822388 0.37831894
0.089014478 -0.071060576 0.37829885
0.090805642 -0.070946284 0.37818876
0.092860073 -0.071072213 0.37817836
0.095002852 -0.071162365 0.37818462
0.096975029 -0.071022756 0.37816793
0.099038482 -0.071050867 0.37816796
0.10111617 -0.071087494 0.37820959
0.10319695 -0.071124829 0.37825122
0.10484337 -0.071140982 0.37820959
0.10681306 -0.071068041 0.37820959
0.10899014 -0.070794441 0.37820959
0.11107144 -0.070826381 0.37820959
0.11315583 -0.070859 0.37820959
0.11482581 -0.070885621 0.37820959
0.1167196 -0.070979998 0.3781096
0.13714038 -0.071672179 0.37808457
0.13927189 -0.07171458 0.3780846
0.14113273 -0.071484976 0.37812626
0.14295375 -0.071138769 0.37813458
0.14496304 -0.071126223 0.37817836
0.14703828 -0.0710833 0.37827209
0.14880185 -0.071139455 0.37837625
0.15098415 -0.070787385 0.37845957
0.15321071 -0.070863634 0.3786158
0.15498427 -0.070919439 0.37870955
0.15676209 -0.0709759 0.37880325
0.15898064 -0.071042962 0.37889698
0.16116548 -0.071093298 0.37889701
0.16290399 -0.071128353 0.37886575
0.16504911 -0.071158931 0.37875119
0.16723052 -0.071204014 0.37870955
0.16895264 -0.07122951 0.3786158
0.17121547 -0.070953503 0.37850642
0.17329566 -0.070892982 0.37845957
0.17507191 -0.070937969 0.37845957
0.17686199 -0.07098756 0.37848043
0.17869566 -0.07105346 0.37858459
0.18097287 -0.071127966 0.37866792
0.1832249 -0.070775963 0.37870955
0.18502524 -0.070824333 0.37870955
0.18684545 -0.070879266 0.37874079
0.1886704 -0.070934922 0.37877202
0.19099158 -0.07101766 0.37887618
0.19332607 -0.071103454 0.37899074
0.19520137 -0.071173407 0.3790845
0.19711478 -0.071255788 0.37924075
0.19895566 -0.07089252 0.37927198
0.20080958 -0.070950627 0.37929282
0.20280753 -0.070874803 0.37920952
0.20501602 -0.071157649 0.37914699
0.20716417 -0.071099594 0.37904283
0.20900351 -0.070728391 0.379022
0.21087407 -0.070786476 0.379022
0.21280283 -0.070862867 0.37911576
0.21473809 -0.070940115 0.37920949
0.21664444 -0.071006574 0.37924075
0.2185929 -0.071085542 0.37933448
0.22079106 -0.071076401 0.37935945
0.22313178 -0.071337782 0.37943447
0.22534312 -0.070905991 0.37948027
0.22735345 -0.070998296 0.37962613
0.22937162 -0.071091421 0.37977195
0.23134926 -0.070744991 0.37986565
0.23333186 -0.070823915 0.37992817
0.23530245 -0.070897914 0.3799594
0.2372217 -0.07095547 0.37989691
0.23912753 -0.071008012 0.37980318
0.24103951 -0.071061477 0.37970942
0.24291767 -0.071104258 0.37955323
0.24482161 -0.07115379 0.37942824
0.2467317 -0.071204275 0.37930322
0.24891591 -0.071171962 0.37913448
0.25115934 -0.070881344 0.37895951
0.25320381 -0.071060419 0.37881663
0.25539297 -0.071010083 0.37875119
0.257395 -0.071081273 0.37870955
0.25930616 -0.07069543 0.37855333
0.26126549 -0.070752643 0.37842831
0.26318842 -0.070799217 0.37824082
0.26513982 -0.070852637 0.3780846
0.2672087 -0.070936471 0.3780846
0.26933104 -0.07103321 0.37814713
0.27093995 -0.071109429 0.37820959
0.27323321 -0.071078874 0.37908453
0.059411794 -0.069794007 0.3780846
0.061029673 -0.069807135 0.37808457
0.063063823 -0.069835559 0.3781471
0.065100342 -0.069864608 0.37820959
0.067128137 -0.069882646 0.37820959
0.069308087 -0.069569573 0.37815958
0.071043499 -0.069641471 0.37816796
0.0728039 -0.069924802 0.3781471
0.074826427 -0.069933578 0.37808457
0.076862842 -0.06995447 0.3780846
0.078897119 -0.069570303 0.3780846
0.081066467 -0.068917476 0.37808457
0.082985356 -0.068814524 0.3781471
0.085030578 -0.068837389 0.37814713
0.087078333 -0.068860911 0.3781471
0.088978529 -0.069007382 0.37808457
0.090349615 -0.069294751 0.3780846
0.10105965 -0.069433339 0.37808457
0.10312788 -0.069462001 0.3780846
0.10478469 -0.069485411 0.3780846
0.10685855 -0.069515325 0.37808457
0.10893536 -0.069545865 0.3780846
0.11101555 -0.06957715 0.37808457
0.11309881 -0.069609076 0.3780846
0.11476792 -0.069635153 0.3780846
0.14564058 -0.069369622 0.3780846
0.14708324 -0.069131292 0.37812626
0.14893803 -0.068959393 0.37818462
0.15108202 -0.06919986 0.37835959
0.15311 -0.069177493 0.37845957
0.15488233 -0.06923189 0.37855333
0.15697339 -0.068775564 0.37864706
0.15910491 -0.069055282 0.37870955
0.16105358 -0.068987466 0.37875119
0.16278625 -0.069019318 0.37870955
0.16497339 -0.069067091 0.37869567
0.16713201 -0.069101773 0.3786054
0.16886683 -0.069131963 0.3785429
0.17090537 -0.068928264 0.3784596
0.17322636 -0.068800427 0.37842831
0.17498727 -0.068838216 0.37839708
0.17679566 -0.068893589 0.37845957
0.17903595 -0.068953417 0.3784804
0.18130744 -0.069023699 0.3785533
0.18313225 -0.069081448 0.3786158
0.18496199 -0.069139883 0.37867832
0.18678129 -0.069193244 0.37870955
0.18916717 -0.069077216 0.37870955
0.19133055 -0.06890633 0.37877202
0.19320387 -0.068975061 0.37887618
0.19508302 -0.069044493 0.37898037
0.196968 -0.069114745 0.3790845
0.1988239 -0.06875547 0.37914699
0.20066527 -0.068807796 0.37914699
0.20291859 -0.068855323 0.37904283
0.20518959 -0.068907678 0.37895951
0.20704818 -0.068962596 0.37895951
0.20891218 -0.069018282 0.37895951
0.2107816 -0.06907475 0.37895951
0.21265662 -0.069132008 0.37895951
0.21459037 -0.069207206 0.37905324
0.216994 -0.068873361 0.37915593
0.21919481 -0.069073088 0.37920949
0.22129603 -0.069018155 0.37920949
0.22324114 -0.069091015 0.37927198
0.22519584 -0.068741858 0.37936571
0.22719195 -0.068827197 0.37949073
0.22921464 -0.068919078 0.37964693
0.2312073 -0.069000602 0.37974066
0.23316909 -0.069071688 0.37977192
0.23513804 -0.069143616 0.37980318
0.23707503 -0.06920515 0.37977192
0.23899898 -0.069261804 0.37970942
0.24096203 -0.069047689 0.37955946
0.24275547 -0.068918876 0.37943864
0.24464418 -0.06896276 0.37929282
0.24692857 -0.068918332 0.37917826
0.24926195 -0.06921456 0.37904879
0.2513383 -0.06870459 0.37886575
0.25324759 -0.068750419 0.37870955
0.25524727 -0.068819985 0.37867832
0.25719103 -0.068873487 0.37855333
0.25916308 -0.068933628 0.37845957
0.26112077 -0.068989217 0.37833458
0.26306388 -0.069040008 0.37817836
0.26489255 -0.069242269 0.37808457
0.26714599 -0.069622464 0.3780846
0.26922438 -0.069273107 0.37811583
0.27083385 -0.068914153 0.37820959
0.27208877 -0.069009088 0.37850127
0.27400884 -0.069271646 0.37970942
0.14933012 -0.067247532 0.37810543
0.15123476 -0.067028612 0.37820959
0.15300573 -0.067082472 0.37831375
0.15478091 -0.067136794 0.37841788
0.15696886 -0.066779166 0.37848043
0.1592021 -0.066849224 0.3786158
0.16097438 -0.066897832 0.37867832
0.16298743 -0.066859737 0.37868458
0.16507432 -0.067063734 0.3786346
0.16707209 -0.06701716 0.37858456
0.16877821 -0.067035154 0.37845957
0.17097592 -0.067082494 0.37843871
0.17314097 -0.067115866 0.37833458
0.17491525 -0.067158058 0.37833458
0.17669353 -0.067200869 0.37833458
0.17906275 -0.066958643 0.37841266
0.18119614 -0.066911034 0.37843871
0.18300949 -0.066963099 0.37848043
0.18481742 -0.067012168 0.37850127
0.18683335 -0.0669517 0.37854883
0.1889472 -0.067140743 0.37863812
0.19122249 -0.066787079 0.37867832
0.19307326 -0.066846095 0.37874079
0.19494551 -0.066911362 0.37883452
0.19682343 -0.066977285 0.37892827
0.1986908 -0.067038432 0.37899074
0.20097512 -0.067096531 0.37895951
0.20326646 -0.067155734 0.37892827
0.20508504 -0.067197248 0.37886575
0.20689128 -0.067233987 0.37877202
0.20883182 -0.067034282 0.37875953
0.21061923 -0.066922434 0.37879288
0.21290839 -0.06690298 0.37891263
0.21521996 -0.067209899 0.37897733
0.21733519 -0.066739112 0.37905324
0.21924764 -0.066802129 0.3790845
0.22116645 -0.06686604 0.37911573
0.22312832 -0.066941723 0.37920949
0.22506031 -0.067007288 0.37924075
0.22705495 -0.067090243 0.37936571
0.22905722 -0.067174077 0.37949073
0.23108621 -0.067264378 0.37964693
0.23310754 -0.067070872 0.37963444
0.23494661 -0.066958219 0.37962613
0.23688807 -0.067019306 0.37960529
0.23881 -0.067073874 0.37954283
0.24058819 -0.066940717 0.37940946
0.24284837 -0.066649288 0.37925947
0.24495937 -0.066790685 0.37914699
0.24711081 -0.066942252 0.3790845
0.24932247 -0.066914193 0.37895951
0.25120345 -0.066952176 0.37877202
0.25317395 -0.067013189 0.37870955
0.25510955 -0.067064099 0.37858456
0.25707299 -0.067121536 0.37849084
0.25904357 -0.067179881 0.37839705
0.26095694 -0.067222595 0.37820959
0.26275539 -0.067416377 0.37808457
0.26966035 -0.067973129 0.3780846
0.27127847 -0.06631393 0.37827209
0.27206561 -0.067266852 0.37858456
0.15114164 -0.064942107 0.3780846
0.15291983 -0.064997643 0.37820959
0.15493022 -0.064963371 0.37825957
0.15707901 -0.065196916 0.37840956
0.15911281 -0.065169424 0.37849084
0.1608972 -0.065221995 0.37858456
0.16307434 -0.064853467 0.37858459
0.16525668 -0.06489677 0.37856373
0.16697727 -0.064920582 0.37848043
0.16903588 -0.064850986 0.37841266
0.17111738 -0.065101758 0.37829885
0.17303246 -0.065011799 0.37820959
0.17479575 -0.065048911 0.37818876
0.17701444 -0.065099403 0.37818182
0.17924479 -0.064739347 0.37820959
0.18106182 -0.064792551 0.37827206
0.18288368 -0.064846233 0.37833458
0.18469521 -0.064895287 0.37836581
0.18698321 -0.064963304 0.37843874
0.18926816 -0.065028697 0.37849084
0.1911124 -0.065085351 0.37855333
0.19297782 -0.065148093 0.37864706
0.19483285 -0.065206036 0.37870955
0.19697566 -0.06484817 0.37875119
0.19911595 -0.065020703 0.37881887
0.2012731 -0.064965732 0.37877202
0.20308512 -0.065004975 0.37870955
0.20491308 -0.065048486 0.37866792
0.20676857 -0.065099843 0.37866792
0.20876463 -0.06487041 0.37864706
0.21116295 -0.064891294 0.37870955
0.21336828 -0.064884126 0.37880328
0.21532008 -0.064959846 0.37892827
0.21722512 -0.065020241 0.37895951
0.21913639 -0.065081477 0.37899077
0.22105384 -0.065143511 0.379022
0.22299609 -0.065211609 0.3790845
0.22503957 -0.065029338 0.37915951
0.22688635 -0.06492275 0.37920949
0.22887419 -0.065000065 0.37931368
0.23084424 -0.065071054 0.37937614
0.23270014 -0.064962938 0.37940949
0.2347258 -0.064767756 0.37939698
0.23667803 -0.064830095 0.37939698
0.23884204 -0.064793184 0.3792595
0.2411772 -0.065034106 0.37920946
0.24338523 -0.065006912 0.37911573
0.24530727 -0.065057129 0.379022
0.24725607 -0.065113477 0.37895951
0.24923229 -0.065176219 0.37892827
0.25113294 -0.0652183 0.37877202
0.25310251 -0.065277472 0.37870955
0.25501946 -0.064892776 0.37858459
0.25696048 -0.064942636 0.37845957
0.25887978 -0.064986296 0.37829292
0.26081994 -0.065034404 0.3781471
0.26234922 -0.065950327 0.3780846
0.27180552 -0.065467797 0.37833458
0.27389428 -0.064886421 0.37983441
0.15153159 -0.062887847 0.37808457
0.15284415 -0.062919475 0.37812626
0.15504199 -0.062974997 0.37820959
0.15726306 -0.063038372 0.37833455
0.15904658 -0.06309025 0.37843871
0.16080795 -0.063132301 0.37848043
0.16299288 -0.062765814 0.37850127
0.1651648 -0.062803924 0.37845957
0.16692096 -0.062840588 0.37845957
0.16908427 -0.062873371 0.37837625
0.17121461 -0.06289307 0.37820959
0.1729829 -0.062931634 0.37820959
0.17469734 -0.062949941 0.3780846
0.17691773 -0.062999673 0.37808463
0.17918853 -0.063065894 0.37817836
0.18098982 -0.063112222 0.37820959
0.18278056 -0.06315396 0.37820959
0.18504572 -0.063214011 0.37825122
0.18740967 -0.063028827 0.37830958
0.18915506 -0.062914029 0.37837625
0.19098741 -0.062965095 0.37841788
0.19283547 -0.063020349 0.37848043
0.19486579 -0.062956072 0.37851316
0.19700129 -0.063004024 0.3786054
0.19930679 -0.062788919 0.37864706
0.20112915 -0.062831089 0.3786158
0.20292288 -0.062863618 0.37852207
0.20477155 -0.062912345 0.37852207
0.20689484 -0.062882647 0.37850958
0.20914634 -0.063116223 0.37853462
0.2113187 -0.063098706 0.37858456
0.21324481 -0.063166268 0.37867832
0.21515973 -0.063229337 0.37874079
0.21719965 -0.063050263 0.37885949
0.21902533 -0.062941141 0.37891784
0.22094756 -0.06300246 0.37895951
0.22285175 -0.063057698 0.37895951
0.22467557 -0.062944368 0.37898451
0.22672044 -0.06275887 0.37905324
0.22870013 -0.062831588 0.37914699
0.23064931 -0.062894695 0.37917826
0.23284754 -0.062869348 0.37913448
0.2349972 -0.063022822 0.37914699
0.23715553 -0.06317763 0.37915951
0.23933911 -0.063144825 0.37905324
0.24126634 -0.063196898 0.37899074
0.24322018 -0.063255012 0.37895951
0.24524219 -0.063051119 0.37888449
0.24711895 -0.062938623 0.37887618
0.24908669 -0.062997185 0.37883452
0.25100651 -0.063042678 0.37870955
0.25296053 -0.063096114 0.37862623
0.25489035 -0.062713243 0.3785221
0.25687239 -0.062771454 0.37845957
0.25877622 -0.062809832 0.37827206
0.26017582 -0.062831379 0.3780846
0.27358478 -0.063942805 0.37945947
0.15278673 -0.060850404 0.3780846
0.15499221 -0.060907293 0.37818876
0.15718198 -0.060956504 0.37824082
0.1589732 -0.061009884 0.37836581
0.16074243 -0.061053697 0.37842831
0.16293973 -0.061101615 0.37845957
0.16512895 -0.061145272 0.37845957
0.16687077 -0.061175786 0.37842834
0.16901939 -0.061202411 0.37831375
0.17117693 -0.061231468 0.37820959
0.17293535 -0.060853358 0.37820959
0.17509909 -0.060882561 0.37809852
0.17731303 -0.06092827 0.37808463
0.17909408 -0.060967248 0.37808463
0.1808992 -0.061013605 0.37812626
0.18287516 -0.060937874 0.37812033
0.18504955 -0.061212465 0.37813151
0.187104 -0.060992621 0.37815958
0.18901788 -0.060793743 0.37820959
0.19082768 -0.060836174 0.37820959
0.19293812 -0.060810018 0.37825957
0.19516601 -0.061042417 0.37833458
0.19729672 -0.061019849 0.37839708
0.1991618 -0.061075117 0.37845957
0.20099923 -0.061121006 0.37845957
0.20284176 -0.061167553 0.37845957
0.20468944 -0.061214767 0.37845957
0.2071244 -0.061094414 0.37844175
0.20929657 -0.060906593 0.37841788
0.21116261 -0.060955759 0.37841788
0.21308111 -0.061019052 0.37850127
0.21501791 -0.061086472 0.3786054
0.21684761 -0.060978066 0.37868458
0.21885669 -0.060786661 0.37874079
0.22078922 -0.060849026 0.37880328
0.2227284 -0.060912143 0.37886575
0.2246744 -0.060976021 0.37892827
0.22660848 -0.0610356 0.37895951
0.2288318 -0.06101789 0.37898451
0.23118404 -0.061264612 0.37903449
0.23336364 -0.061232705 0.37895951
0.23539725 -0.0610364 0.37895951
0.23724557 -0.060920481 0.37895951
0.23920403 -0.060979724 0.37895951
0.24112968 -0.061029796 0.37889698
0.24303518 -0.061073888 0.37879285
0.24487107 -0.060950615 0.37873453
0.24695086 -0.060758222 0.37874079
0.24892369 -0.060816068 0.37870955
0.25090382 -0.060874846 0.37867832
0.25282872 -0.060919374 0.3785533
0.25478131 -0.060969763 0.37845957
0.25674075 -0.06102109 0.37836581
0.25868601 -0.061068214 0.37824082
0.26010627 -0.061093979 0.3780846
0.27157864 -0.060213 0.37833458
0.15319505 -0.059621684 0.3780846
0.15504535 -0.059069097 0.37810248
0.15712 -0.058883969 0.37818876
0.15887535 -0.05892235 0.37823042
0.16106771 -0.05896838 0.37826514
0.16326255 -0.059013996 0.37829292
0.16501312 -0.059047595 0.37829292
0.16676736 -0.0590817 0.37829292
0.16894072 -0.059116345 0.37823737
0.17113154 -0.059156034 0.37820959
0.17288956 -0.058776673 0.37820959
0.17505567 -0.058805738 0.37810543
0.17726557 -0.05884847 0.3780846
0.17905535 -0.059301987 0.3780846
0.18039332 -0.059330624 0.3780846
0.18757044 -0.05948877 0.3780846
0.18906789 -0.05924423 0.37808457
0.19073837 -0.059147563 0.37811583
0.193022 -0.059204679 0.3781471
0.195388 -0.059010357 0.37815961
0.19714411 -0.058891237 0.37820959
0.19899644 -0.058941144 0.37825122
0.2008542 -0.058991682 0.37829292
0.20269515 -0.059036344 0.37829289
0.20498122 -0.059086602 0.37825122
0.20719063 -0.05897063 0.37823457
0.2091215 -0.058762599 0.37820959
0.21100314 -0.05881466 0.37824082
0.21289054 -0.058867391 0.37827206
0.21483713 -0.058935374 0.37839708
0.21677285 -0.058999158 0.37849084
0.21873334 -0.059068576 0.3786158
0.22066455 -0.059128959 0.37867832
0.22258398 -0.059185151 0.37870955
0.22480524 -0.059167773 0.37875953
0.22719203 -0.059017658 0.37878093
0.22934951 -0.058963474 0.37883452
0.23127951 -0.059017688 0.37883452
0.23322898 -0.059075862 0.37885535
0.2350719 -0.058957987 0.37885949
0.23715395 -0.058770511 0.37892827
0.23911111 -0.058827348 0.37892827
0.24101581 -0.058870375 0.37883452
0.24292657 -0.05891424 0.37874079
0.2448841 -0.058968551 0.37870955
0.24686903 -0.059028581 0.37870955
0.24884082 -0.059084598 0.37867832
0.25075784 -0.059126772 0.3785533
0.25270218 -0.059174612 0.37845957
0.25469536 -0.059233136 0.37842834
0.25665385 -0.059282668 0.37833458
0.25878298 -0.05877503 0.37819174
0.260039 -0.059357971 0.3780846
0.27179447 -0.058959611 0.37870955
0.157185 -0.056945518 0.37808457
0.15878786 -0.056840897 0.37811583
0.16097729 -0.056884501 0.3781471
0.16315871 -0.056924067 0.3781471
0.16490804 -0.056956276 0.37814713
0.16691718 -0.056909226 0.37813458
0.16906306 -0.057126034 0.37820959
0.17108786 -0.057082139 0.37820959
0.17282574 -0.057107173 0.3781471
0.17501019 -0.05714139 0.37808463
0.17679353 -0.057592317 0.3780846
0.19295888 -0.057939142 0.37808457
0.19477713 -0.057980433 0.3780846
0.19703639 -0.057194635 0.3780846
0.19887166 -0.056821924 0.37811583
0.20072244 -0.056868859 0.3781471
0.20302282 -0.056922484 0.37814713
0.2053307 -0.056977 0.37814713
0.20718312 -0.057021335 0.3781471
0.20904088 -0.057066284 0.3781471
0.21090412 -0.057111874 0.37814713
0.21279043 -0.057162795 0.37817836
0.21470043 -0.057219144 0.37824082
0.21672168 -0.057029355 0.37833458
0.21876025 -0.056802951 0.37842384
0.22110744 -0.057103608 0.37852207
0.22339952 -0.057065796 0.37858459
0.22530848 -0.057116035 0.37858459
0.2271733 -0.056731589 0.3785221
0.22917004 -0.056801535 0.37864709
0.23109819 -0.056853477 0.37864706
0.23307134 -0.056915455 0.37870955
0.23503248 -0.056973595 0.37874079
0.23703973 -0.05704182 0.37883452
0.23899573 -0.057096738 0.37883452
0.24095878 -0.057152428 0.37883452
0.24286875 -0.057194769 0.37874079
0.24482551 -0.05724724 0.37870955
0.24686763 -0.057042319 0.37865955
0.24866331 -0.056904927 0.37852207
0.25061989 -0.056954533 0.37845957
0.25258347 -0.057005126 0.37839708
0.25456831 -0.05705953 0.37835541
0.25677532 -0.056998167 0.3783167
0.25867662 -0.056877762 0.37820959
0.26078945 -0.056702446 0.37813464
0.2719495 -0.057257451 0.379022
0.15918638 -0.055606328 0.3780846
0.16005634 -0.055621453 0.3780846
0.16748655 -0.055754542 0.3780846
0.1693856 -0.055513814 0.37808457
0.17108104 -0.055158995 0.3780846
0.17275487 -0.055024654 0.37808463
0.17438762 -0.055608269 0.37808457
0.20065776 -0.055600375 0.3780846
0.20203614 -0.055631563 0.3780846
0.20943771 -0.055803712 0.3780846
0.21083522 -0.055837091 0.3780846
0.21270314 -0.055882126 0.3780846
0.21485445 -0.055262439 0.3781096
0.21695977 -0.055014249 0.37818876
0.21935928 -0.054801978 0.37827209
0.22125366 -0.054848708 0.37827209
0.22317253 -0.05490065 0.37830332
0.22509778 -0.05495327 0.37833458
0.22702964 -0.055006497 0.37836584
0.22896808 -0.055060424 0.37839705
0.23093238 -0.055119552 0.37845957
0.23292315 -0.05518407 0.37855333
0.23494087 -0.055253848 0.37867832
0.23690803 -0.054885875 0.37873039
0.2389282 -0.054953467 0.37883452
0.24089028 -0.055006757 0.37883452
0.24277936 -0.055042624 0.37870955
0.24472815 -0.055091377 0.37866792
0.24650297 -0.054948993 0.37850958
0.24883035 -0.054660939 0.37843457
0.25116768 -0.054886866 0.37833458
0.25343084 -0.054857943 0.37827206
0.25525868 -0.05476445 0.37825122
0.25715974 -0.055051424 0.37825957
0.25945747 -0.055026729 0.37820959
0.26145333 -0.055078577 0.37814713
0.26345718 -0.055131271 0.3780846
0.26499772 -0.055178143 0.3780846
0.26636636 -0.055075277 0.37808457
0.26878792 -0.054575097 0.37812626
0.27018166 -0.054475419 0.3781471
0.27206066 -0.055110008 0.37929282
0.21780023 -0.053471543 0.3780846
0.21921618 -0.053505227 0.3780846
0.22130828 -0.053283941 0.37816796
0.22303349 -0.053181782 0.37814713
0.22493872 -0.053228091 0.37814713
0.2268502 -0.053275049 0.37814713
0.22875617 -0.052897573 0.37814713
0.23074372 -0.052959997 0.37825122
0.23276456 -0.05302896 0.37839708
0.23479356 -0.05309869 0.3785429
0.23683111 -0.052744262 0.37870955
0.23882413 -0.052803159 0.37877202
0.24078482 -0.052854039 0.37877202
0.2427128 -0.052896928 0.37870955
0.24486883 -0.05284683 0.37853456
0.24698305 -0.052976232 0.37842834
0.24908054 -0.053101588 0.3782846
0.25130498 -0.053063676 0.37817836
0.25329006 -0.053114928 0.3781471
0.25534588 -0.05318002 0.37820959
0.25736791 -0.053237192 0.37820959
0.25949103 -0.053038411 0.37820959
0.26137847 -0.052912001 0.37814713
0.26330769 -0.052792739 0.37813458
0.26475921 -0.053234071 0.37820959
0.2665543 -0.053069901 0.37820959
0.26851261 -0.052953798 0.37820959
0.27020818 -0.052750401 0.37827209
0.27227968 -0.052981932 0.37970942
0.22915155 -0.051200327 0.3780846
0.23062135 -0.050818171 0.37814713
0.23262797 -0.050881237 0.37827209
0.23468117 -0.050953399 0.37845957
0.23674321 -0.051026277 0.37864709
0.23873505 -0.051083006 0.37870955
0.24069491 -0.051131994 0.37870955
0.24264176 -0.051177483 0.37867832
0.24499606 -0.051216584 0.37850127
0.24734524 -0.051253907 0.37830335
0.24934936 -0.051034641 0.37818462
0.25108066 -0.051068436 0.3780846
0.25319326 -0.05138262 0.3780846
0.25520641 -0.051008601 0.37810543
0.25725523 -0.051068779 0.37814713
0.25918531 -0.050949968 0.37815961
0.2612637 -0.050738748 0.3780846
0.2633304 -0.050799251 0.37811583
0.26544973 -0.050868884 0.37820959
0.26699573 -0.050912194 0.37820959
0.26856944 -0.050960243 0.37824082
0.27019238 -0.051017068 0.37833458
0.27226341 -0.051240828 0.37977192
0.23070224 -0.049254816 0.37808457
0.23254378 -0.049170233 0.37820959
0.23459616 -0.049239736 0.37839705
0.23664571 -0.048883233 0.37858453
0.23866272 -0.048942611 0.37868872
0.24062157 -0.048989221 0.37868872
0.24298678 -0.049029574 0.3785429
0.24534737 -0.049068134 0.37837625
0.24723458 -0.049098115 0.37823042
0.24907243 -0.048964143 0.37815961
0.25094029 -0.048601568 0.37808457
0.25512618 -0.048850656 0.3780846
0.25714558 -0.048902523 0.3780846
0.25917313 -0.04895512 0.3780846
0.26122233 -0.049440883 0.3780846
0.26326668 -0.049495514 0.3780846
0.2653195 -0.049550906 0.3780846
0.26754379 -0.049322288 0.37808457
0.26896286 -0.049223356 0.3781471
0.27116206 -0.049106352 0.37890953
0.23169391 -0.047224347 0.3780846
0.23335502 -0.046892393 0.37820959
0.23476927 -0.047324046 0.37836581
0.23680198 -0.046655614 0.37845957
0.23898993 -0.046796747 0.37852207
0.24113956 -0.04692962 0.37850958
0.24334723 -0.046885978 0.37842834
0.24520031 -0.046908543 0.37824082
0.24714045 -0.046947215 0.37817836
0.24906684 -0.046982612 0.3780846
0.25056231 -0.047018327 0.3780846
0.25559181 -0.047570884 0.3780846
0.25710699 -0.047608688 0.3780846
0.26955879 -0.047640506 0.37808457
0.27171779 -0.046801582 0.37920949
0.23187792 -0.044893064 0.3780846
0.23336537 -0.044930782 0.3781471
0.23538074 -0.044986516 0.37827206
0.2374237 -0.045046609 0.37842831
0.23939608 -0.045092359 0.37845957
0.24131605 -0.045127641 0.37839705
0.24318215 -0.04515221 0.37824082
0.24511464 -0.045188595 0.37817836
0.24703348 -0.045221813 0.3780846
0.24903181 -0.045695707 0.3780846
0.27139622 -0.045013722 0.37883455
0.23184831 -0.043619234 0.3780846
0.23332569 -0.043230861 0.3781471
0.23540831 -0.043026667 0.37823457
0.237275 -0.042898104 0.37827206
0.2392261 -0.04293783 0.37827206
0.24114434 -0.042971019 0.37820959
0.24305922 -0.043428242 0.37811583
0.24502134 -0.043894127 0.3780846
0.27103236 -0.043222964 0.37839708
0.23179229 -0.041073151 0.3780846
0.23327871 -0.041107196 0.3781471
0.23515312 -0.040978849 0.37820959
0.23718779 -0.040762547 0.37820959
0.23911816 -0.04079663 0.37817836
0.24053493 -0.041241076 0.3780846
0.27083829 -0.041030552 0.37820959
0.23319569 -0.038978256 0.3780846
0.23518942 -0.039022531 0.37817836
0.23711239 -0.039054409 0.37814713
0.23886247 -0.039222393 0.37808457
0.27078184 -0.038860932 0.37820959
0.23364517 -0.03728956 0.3780846
0.2351892 -0.037061088 0.3780846
0.23703879 -0.037347458 0.3780846
0.27082881 -0.037138496 0.37833458
0.27070889 -0.0358257 0.37820959
0.27296662 -0.03426896 0.3799594
0.27271444 -0.03293556 0.37964696
0.27245504 -0.031170137 0.37933448
0.27186832 -0.028507296 0.37858456
0.27216095 -0.029837089 0.37895951
0.27170444 -0.026760554 0.37839708
0.27167743 -0.02502854 0.37839708
0.27156293 -0.023289327 0.37827209
0.27371734 -0.022528056 0.37983441
0.27141121 -0.021980433 0.3780846
0.27338052 -0.020765487 0.37939698
0.27322602 -0.01901985 0.37920949
0.27325395 -0.017287811 0.37927198
0.27268055 -0.015088302 0.37850127
0.27263576 -0.012923133 0.37845957
0.27262649 -0.011192482 0.37845957
0.27258816 -0.0090284906 0.37841788
0.2724781 -0.0068631144 0.37827209
0.27243906 -0.00037750156 0.37820959
0.27266926 0.00092032994 0.37852207
0.27296549 0.0030874128 0.37891784
0.27319002 0.0052573616 0.37920949
0.27315921 0.0069907089 0.37914699
0.2729505 0.0087180231 0.37883455
0.27281713 0.027334088 0.37820959
0.2729201 0.029077357 0.37829292
0.27305174 0.031258855 0.37839708
0.27373096 0.033075131 0.37927198
0.2741743 0.034434132 0.37983441
0.27426687 0.037493635 0.37983441
0.27405208 0.039204821 0.37945947
0.27392983 0.040926993 0.37920949
0.2739749 0.042238697 0.37920949
0.27409604 0.04312776 0.37933448
0.27434036 0.044908825 0.37958446
0.27467701 0.046708211 0.3799594
0.2730692 0.054844379 0.37870955
0.27316806 0.057040159 0.37870955
0.27340558 0.059267595 0.37889701
0.27376091 0.061089188 0.37927198
0.27396128 0.0624432 0.37945947
0.2741859 0.063368067 0.37970942
0.27453139 0.073070928 0.37945947
0.27655733 0.10149692 0.3780846
0.27703211 0.10299185 0.37858456
0.2776373 0.10498136 0.37920949
0.27793309 0.10641781 0.37945947
0.27819228 0.10740108 0.37970942
0.2778886 0.10905002 0.3790845
0.27808595 0.10824376 0.37945947
0.22322211 -0.21805744 0.3819592
0.22361863 -0.21667685 0.38175091
0.22490287 -0.21742268 0.38108426
0.22683266 -0.21721207 0.3803969
0.22811896 -0.21671624 0.3800844
0.22378454 -0.21462312 0.3818967
0.22493429 -0.21514797 0.3812843
0.22673595 -0.21534325 0.38064685
0.22832917 -0.21515323 0.38020936
0.22358514 -0.21265602 0.3819592
0.22493999 -0.21285215 0.38143426
0.22692806 -0.21298897 0.38083431
0.22914754 -0.2130512 0.38042361
0.23098595 -0.21246803 0.38012609
0.2234101 -0.21115847 0.3819592
0.22469279 -0.21066226 0.38164669
0.22695553 -0.21069171 0.38116762
0.22925451 -0.21075387 0.38074055
0.23111607 -0.21082303 0.38042808
0.23282175 -0.21073662 0.38016772
0.22523542 -0.20890065 0.38173422
0.22734754 -0.20886728 0.38136551
0.22922227 -0.20894936 0.38108429
0.23106368 -0.20899983 0.38074055
0.23292831 -0.2090703 0.38042814
0.23427774 -0.20863461 0.38020939
0.2255954 -0.20713441 0.38191757
0.22730049 -0.20705032 0.38167799
0.22919275 -0.20714776 0.38142797
0.23103318 -0.20719707 0.38108429
0.23287749 -0.207249 0.38074055
0.23468742 -0.20726976 0.38033438
-0.074981615 -0.20545271 0.38050935
-0.073975578 -0.20453909 0.38077182
-0.020871498 -0.20479783 0.3809593
0.22740181 -0.20538153 0.38191757
0.22924118 -0.20507026 0.38178423
0.2309912 -0.20494087 0.38150087
0.23281498 -0.2049744 0.38112596
0.23492207 -0.20507327 0.3805531
-0.074984096 -0.20353179 0.38025105
-0.073386006 -0.20323259 0.3800844
-0.027590649 -0.20245665 0.38158423
-0.016707238 -0.20254225 0.3819592
0.23109271 -0.20282869 0.38183418
0.23276316 -0.20271017 0.38152173
0.23505108 -0.20283835 0.38078073
0.23652592 -0.20204812 0.38020939
-0.073790058 -0.20193334 0.38020939
-0.028446667 -0.20174979 0.3819592
0.23131841 -0.20128722 0.3819592
0.23294258 -0.2007703 0.38170922
0.23503304 -0.20090342 0.38105929
0.23646487 -0.20066649 0.38039687
0.23320809 -0.19909522 0.38180918
0.235229 -0.19897997 0.38127178
0.23684278 -0.19883674 0.38055307
-0.020003041 -0.19696261 0.38170922
-0.01831926 -0.1976634 0.38133428
-0.017207915 -0.19713491 0.38150093
0.23353373 -0.19730397 0.38191757
0.23515394 -0.19714361 0.38152176
0.23715822 -0.19695635 0.38060519
-0.018859703 -0.19526909 0.38137594
-0.017476158 -0.1959047 0.38145924
0.23371376 -0.19572827 0.3819592
0.23508179 -0.19531068 0.38177168
0.23711054 -0.19514571 0.38089681
0.23860587 -0.1944689 0.3800844
-0.02832007 -0.19251998 0.38170922
-0.027077861 -0.19300449 0.38180298
-0.025159325 -0.19293296 0.38188419
0.23516448 -0.19320156 0.3818967
0.23697609 -0.19302377 0.38131863
0.23888987 -0.19298466 0.38029274
-0.028530968 -0.19068515 0.38104263
-0.027040314 -0.19107212 0.38155299
-0.024963284 -0.19112675 0.38170922
-0.02302642 -0.19106025 0.38191757
0.23711514 -0.19080901 0.38153067
0.23893218 -0.19108413 0.38063437
0.24021295 -0.19079332 0.3800844
-0.028886128 -0.18885967 0.38085932
-0.027011855 -0.18920851 0.381428
-0.024938434 -0.18927312 0.38160506
-0.022781264 -0.18909475 0.38183421
-0.021408478 -0.18873884 0.3819592
0.23736942 -0.18879831 0.38174045
0.2390748 -0.18893357 0.38095933
0.24052086 -0.18881118 0.38030934
-0.032997765 -0.18693638 0.38048437
-0.031126594 -0.18683606 0.38106346
-0.029056937 -0.18730879 0.38116762
-0.026985595 -0.1869483 0.38139677
-0.024911342 -0.18699023 0.38152865
-0.022921199 -0.18687895 0.38170922
-0.021179527 -0.18668523 0.38189673
-0.019929361 -0.18625653 0.3819592
0.23776349 -0.18698829 0.3818967
0.23895462 -0.18687536 0.38133425
0.24100585 -0.18674086 0.380501
-0.047253381 -0.18400629 0.38020939
-0.035219487 -0.18442433 0.38058436
-0.033172801 -0.18499634 0.38090375
-0.03111122 -0.18466952 0.38120928
-0.029038837 -0.18511754 0.38126487
-0.026961982 -0.18470985 0.38139677
-0.02488781 -0.18473786 0.38150087
-0.022815743 -0.18478779 0.38164669
-0.021157907 -0.18483314 0.38177174
-0.019640353 -0.18476188 0.3819592
0.23893417 -0.18509114 0.38164672
0.24097122 -0.18494701 0.38079265
0.24262521 -0.18485206 0.38014689
-0.05096595 -0.18226935 0.38014689
-0.048734512 -0.18263307 0.38025936
-0.046757776 -0.18302195 0.38040939
-0.045256581 -0.18299296 0.38040933
-0.043288164 -0.18246056 0.38039684
-0.041376449 -0.18205509 0.3800844
-0.038491301 -0.18212661 0.38033438
-0.0367819 -0.18294378 0.38060933
-0.0352327 -0.18283585 0.38099054
-0.033168998 -0.18290144 0.38118842
-0.031097306 -0.18292868 0.38130304
-0.029020602 -0.18292795 0.38135514
-0.026947886 -0.18295389 0.38145924
-0.024870699 -0.18295179 0.38150087
-0.022800095 -0.18300132 0.38164669
-0.021141734 -0.18303135 0.38174048
-0.019487713 -0.18310745 0.38192797
0.23902731 -0.1834278 0.38183418
0.24092615 -0.18314582 0.38106346
0.24300273 -0.18303546 0.38027188
-0.052469179 -0.18082793 0.38016772
-0.050960444 -0.18100798 0.38030314
-0.048897624 -0.18104933 0.3804802
-0.046836957 -0.18110228 0.38067806
-0.04517287 -0.18108559 0.38070932
-0.0430892 -0.18104781 0.38070932
-0.041006781 -0.18101177 0.38070932
-0.038927738 -0.18098752 0.38073015
-0.036869857 -0.18106407 0.3809593
-0.035225894 -0.18114352 0.38117802
-0.033157188 -0.18117885 0.38131344
-0.031083759 -0.1811911 0.38139677
-0.029007172 -0.18118556 0.3814384
-0.02692957 -0.18117176 0.38145924
-0.02485252 -0.18115991 0.38148007
-0.022781005 -0.18118925 0.38158423
-0.021125766 -0.18123387 0.38170922
-0.019056154 -0.18129627 0.38187587
-0.017394597 -0.18087827 0.3819592
0.23927209 -0.18191512 0.3819592
0.24072549 -0.18113445 0.38135213
0.24284612 -0.18115303 0.38036561
-0.054658443 -0.17923707 0.38014689
-0.052906618 -0.17896089 0.38034999
-0.050951783 -0.17890841 0.3805635
-0.048881847 -0.17892176 0.38068154
-0.046808634 -0.17892365 0.38077185
-0.045146804 -0.17891222 0.38081348
-0.043189853 -0.17914061 0.38083431
-0.040992387 -0.17929322 0.38083431
-0.038921464 -0.17899296 0.38097489
-0.036858916 -0.1789407 0.38116762
-0.035204839 -0.17896552 0.38127181
-0.033139542 -0.17901199 0.38143146
-0.031062754 -0.17899819 0.38145924
-0.028981335 -0.1789538 0.3814176
-0.026990104 -0.1791167 0.38143426
-0.024971625 -0.17922576 0.38145924
-0.023065871 -0.17880818 0.38147485
-0.021101272 -0.17895313 0.38158426
-0.019032842 -0.17900179 0.38172308
-0.016964074 -0.17905867 0.38187587
-0.015007363 -0.17881492 0.3819235
-0.012811455 -0.17818558 0.3819592
0.23989609 -0.17862406 0.3818967
0.24109624 -0.17896704 0.38127175
0.24275237 -0.17931917 0.3805531
0.24404079 -0.1792872 0.38014689
-0.05626215 -0.17658472 0.3800844
-0.055041324 -0.17706759 0.38023022
-0.053109739 -0.17690323 0.38051292
-0.050928488 -0.17675862 0.38070932
-0.048852365 -0.17674613 0.38077179
-0.046777133 -0.17673539 0.38083431
-0.045111541 -0.1767049 0.38083431
-0.042932142 -0.17699888 0.38083431
-0.040960371 -0.17708622 0.38085517
-0.03889228 -0.1768651 0.38099501
-0.036829334 -0.17672896 0.38117802
-0.035172794 -0.17673427 0.38124055
-0.033103738 -0.17674969 0.38133428
-0.031026928 -0.17672336 0.38133428
-0.02894637 -0.17667 0.38127181
-0.02679221 -0.1769177 0.3812843
-0.025298888 -0.17690241 0.3812843
-0.023143077 -0.17663951 0.38133428
-0.021075409 -0.17666492 0.381428
-0.019006282 -0.17668253 0.38150087
-0.016940182 -0.17673559 0.38164672
-0.014870506 -0.1767614 0.38173008
-0.01280105 -0.17679858 0.38183421
-0.011145313 -0.17683434 0.38192797
-0.0099005457 -0.17640106 0.3819592
0.23978139 -0.17721497 0.3819592
0.24095595 -0.17665806 0.38145924
0.24299294 -0.17693667 0.3807562
0.24484897 -0.17702508 0.38020939
-0.05650571 -0.17469382 0.38012609
-0.055001546 -0.17487445 0.38027191
-0.052961495 -0.17497368 0.38058433
-0.050894793 -0.17498839 0.38070932
-0.048986647 -0.17506212 0.3807593
-0.046985216 -0.17484763 0.38075933
-0.045070782 -0.17489266 0.38074055
-0.042988438 -0.17484237 0.38070932
-0.040921096 -0.17485119 0.38080308
-0.038858328 -0.17488097 0.38093844
-0.036799222 -0.17493145 0.38111556
-0.035146989 -0.17495111 0.38120928
-0.033074893 -0.17494272 0.38125098
-0.030996587 -0.17489758 0.38120928
-0.028922843 -0.17487347 0.38120928
-0.026849905 -0.17485097 0.38120928
-0.025192153 -0.17483422 0.38120928
-0.023120664 -0.17481494 0.38120928
-0.021053262 -0.17482597 0.38127178
-0.018987875 -0.17485778 0.38137594
-0.016919626 -0.1748673 0.381428
-0.014852129 -0.17488824 0.38150087
-0.012786746 -0.17494416 0.38164672
-0.011132846 -0.17497961 0.38174045
-0.0090660686 -0.175053 0.38191757
-0.0069941287 -0.17462412 0.3819592
0.2409299 -0.17487529 0.38174045
0.24304552 -0.17480065 0.38102183
0.24518387 -0.17474344 0.38033438
0.24652141 -0.17430742 0.3800844
-0.056613743 -0.17308825 0.38014689
-0.054974489 -0.17313731 0.38033438
-0.052926879 -0.17320728 0.38058433
-0.050861582 -0.17322201 0.38070932
-0.049196456 -0.1731896 0.38070932
-0.047111344 -0.17313182 0.38066766
-0.045030396 -0.17308517 0.38064682
-0.042953532 -0.17304979 0.38064682
-0.040881202 -0.17303017 0.38067806
-0.038984597 -0.17313714 0.3807843
-0.037008084 -0.1730112 0.3809593
-0.035115696 -0.17314371 0.38111553
-0.033048224 -0.17314966 0.38118842
-0.030976709 -0.17313354 0.38120928
-0.028904332 -0.17310977 0.38120928
-0.026832756 -0.17308758 0.38120928
-0.025176097 -0.1730711 0.38120928
-0.023105958 -0.17305207 0.38120928
-0.021036461 -0.17303461 0.38120928
-0.018968618 -0.17302842 0.38123012
-0.016902078 -0.17303327 0.38127178
-0.014837955 -0.17306818 0.38137594
-0.012772499 -0.17309517 0.38145924
-0.011121361 -0.17314458 0.38158423
-0.0090570087 -0.17322193 0.38177171
-0.0069903703 -0.17328674 0.38192797
-0.0054724547 -0.17315055 0.3819592
0.24130145 -0.1730597 0.38183421
0.2430011 -0.17300606 0.38127175
0.24511796 -0.17293446 0.3805531
0.24674708 -0.17278951 0.38016772
-0.056985542 -0.17089906 0.38015386
-0.0549393 -0.17096351 0.38039684
-0.052878626 -0.17098603 0.38054264
-0.050809637 -0.1709822 0.38062599
-0.049230386 -0.17112024 0.38060933
-0.047060516 -0.17129545 0.38050103
-0.044979401 -0.17123996 0.38045937
-0.04290494 -0.17120512 0.38045934
-0.040841706 -0.17121407 0.3805531
-0.03919648 -0.17124495 0.38067806
-0.037135359 -0.17126639 0.38079265
-0.035079051 -0.17131275 0.3809593
-0.033014651 -0.17132349 0.3810426
-0.030946972 -0.171317 0.38108429
-0.028876618 -0.1712936 0.38108429
-0.026807068 -0.17127174 0.38108429
-0.02515202 -0.17125551 0.38108429
-0.023090163 -0.1712836 0.38118842
-0.021023305 -0.17127572 0.38120928
-0.018955801 -0.17126028 0.38120928
-0.016888812 -0.17124638 0.38120928
-0.014988993 -0.17133422 0.38123429
-0.013007927 -0.17119317 0.38133428
-0.011109903 -0.17089899 0.38148007
-0.0090470277 -0.17096303 0.38163975
-0.0069823493 -0.17101616 0.38177171
-0.0049166703 -0.17108339 0.38193142
0.24123119 -0.17168738 0.3819592
0.24294615 -0.1712047 0.38150093
0.24505492 -0.17112832 0.38077182
0.24681853 -0.17112125 0.38030314
-0.056942385 -0.16870902 0.38016772
-0.054891285 -0.16875285 0.38036561
-0.052833915 -0.16877995 0.38052186
-0.050763972 -0.16876701 0.38058433
-0.049007587 -0.16894205 0.38045937
-0.047016516 -0.16907535 0.38044545
-0.044939071 -0.16902709 0.3804177
-0.042864934 -0.16898671 0.38040382
-0.040797394 -0.16896944 0.38043854
-0.03914972 -0.16898161 0.38052186
-0.037095539 -0.16902298 0.38068157
-0.035040129 -0.16906278 0.38083431
-0.032978162 -0.16907352 0.38091764
-0.030912766 -0.16906719 0.3809593
-0.028844748 -0.16904421 0.3809593
-0.026781896 -0.16905057 0.38102183
-0.02513258 -0.16906227 0.38108429
-0.023068534 -0.16906236 0.38112596
-0.021007143 -0.16908242 0.38120928
-0.018941272 -0.16906726 0.38120931
-0.016875917 -0.16905361 0.38120928
-0.015224003 -0.16904391 0.38120928
-0.013159963 -0.16903946 0.3812232
-0.011099111 -0.16866907 0.38139677
-0.009037558 -0.16871698 0.38152173
-0.0069761458 -0.16879398 0.38170922
-0.0049118344 -0.16884507 0.38183418
-0.0029843487 -0.16875161 0.3819592
0.24312793 -0.16907787 0.38169137
0.24492207 -0.16907197 0.38108429
0.24675693 -0.16931736 0.38052186
0.2480654 -0.16930255 0.38014689
-0.056737285 -0.16702558 0.3801344
-0.0548435 -0.16695857 0.38027188
-0.053207904 -0.16700745 0.38045937
-0.051131029 -0.1669672 0.38045934
-0.049055588 -0.16692853 0.38045937
-0.046966385 -0.16683686 0.38033438
-0.044887058 -0.16677414 0.38027188
-0.042985186 -0.16683602 0.38028437
-0.040993638 -0.16661948 0.38025936
-0.039106652 -0.16673884 0.38039687
-0.03705344 -0.1667738 0.38054267
-0.035001777 -0.16681927 0.38070932
-0.03294383 -0.16683918 0.38081348
-0.030878989 -0.16682401 0.38083431
-0.028986905 -0.1669344 0.3809343
-0.027004126 -0.16675024 0.3809593
-0.025109285 -0.16684689 0.3810218
-0.023051038 -0.16687442 0.38112596
-0.020991256 -0.16689435 0.38120928
-0.018926993 -0.16687943 0.38120928
-0.016863244 -0.16686605 0.38120928
-0.015212612 -0.16685653 0.38120928
-0.013149723 -0.1668461 0.38120928
-0.011090823 -0.16689184 0.38133428
-0.0090309018 -0.16693926 0.38145924
-0.0069704042 -0.16700187 0.38161546
-0.004908131 -0.16705698 0.38175091
-0.0028452054 -0.16714549 0.3819592
-0.0016056584 -0.16670707 0.3819592
0.24365571 -0.16667713 0.38177171
0.24498758 -0.16688219 0.38123426
0.24703704 -0.16700555 0.38054267
0.24879815 -0.16655773 0.38014689
-0.05630831 -0.16530474 0.3800844
-0.054800842 -0.16518234 0.38020939
-0.053162102 -0.16521731 0.38036561
-0.051099692 -0.16521834 0.38045934
-0.049017597 -0.1651531 0.38039684
-0.046924811 -0.16504444 0.38023022
-0.044852328 -0.16500059 0.38020939
-0.043197431 -0.16497394 0.38020939
-0.041130021 -0.16494216 0.38020942
-0.0390701 -0.164939 0.38027191
-0.037027001 -0.16500981 0.38050103
-0.034980632 -0.16507307 0.38070932
-0.032922115 -0.16508381 0.38079265
-0.030860405 -0.16507797 0.38083431
-0.029211124 -0.16507359 0.38086554
-0.027153911 -0.16509326 0.3809593
-0.025094261 -0.16510084 0.3810218
-0.023039801 -0.16514623 0.38116762
-0.020978764 -0.16514795 0.38120928
-0.018918781 -0.16516034 0.38127181
-0.016858805 -0.16517422 0.38133428
-0.015206148 -0.16513769 0.38127178
-0.013142026 -0.16510043 0.38120928
-0.011084379 -0.16514573 0.38133428
-0.0090246378 -0.16517465 0.3814176
-0.0069641881 -0.16520055 0.38149047
-0.0049043796 -0.16527313 0.38166752
-0.0027602848 -0.16509171 0.38185921
-0.0011921803 -0.16495948 0.3819592
4.6079716e-05 -0.16408649 0.3819592
0.0029349129 -0.16408861 0.3819592
0.0049999272 -0.16485579 0.3819592
0.0070633329 -0.16453317 0.3819592
0.0089621311 -0.16445181 0.3819592
0.010777496 -0.16410944 0.3819592
0.24358314 -0.16486692 0.3819592
0.24480568 -0.16479473 0.38145927
0.24691211 -0.16472201 0.38073018
0.24863994 -0.16469291 0.38020939
-0.054668911 -0.16314189 0.3801344
-0.053103078 -0.16297807 0.38023022
-0.051042557 -0.16297792 0.38032049
-0.048964605 -0.16291972 0.38027191
-0.047009151 -0.16310777 0.38020942
-0.044825375 -0.16325796 0.38020939
-0.043171521 -0.16323173 0.38020939
-0.041105393 -0.16320042 0.38020942
-0.039046749 -0.16319743 0.38027191
-0.037004907 -0.1632676 0.380501
-0.034954652 -0.16289531 0.38070932
-0.032898944 -0.16291197 0.38080654
-0.030837573 -0.16290039 0.38083431
-0.029187193 -0.16288279 0.38083431
-0.027133901 -0.16291569 0.3809593
-0.025074465 -0.16291443 0.38100097
-0.023021225 -0.16295633 0.38113987
-0.020963421 -0.16296996 0.38120928
-0.018906735 -0.16299713 0.38130653
-0.016850241 -0.16303155 0.3814176
-0.015198488 -0.16299568 0.38135514
-0.013136397 -0.16297075 0.38132039
-0.011076465 -0.16296808 0.38133428
-0.0090169841 -0.16297296 0.38136208
-0.006958419 -0.16299999 0.3814384
-0.0048994543 -0.16304053 0.38154256
-0.0029225133 -0.16293503 0.38170922
-0.0011914026 -0.16275269 0.3818967
0.00087084092 -0.16277964 0.3819592
0.0029333837 -0.16278136 0.3819592
0.0049960334 -0.1627847 0.3819592
0.0070588323 -0.16278948 0.3819592
0.0091218678 -0.16279589 0.3819592
0.011185166 -0.16280368 0.3819592
0.012421391 -0.16237354 0.3819592
0.24512894 -0.16295518 0.38145924
0.24726096 -0.16290066 0.38077182
0.24900189 -0.16288082 0.38027185
-0.053051997 -0.16076735 0.38014692
-0.050989851 -0.16075562 0.38020942
-0.048916347 -0.16070576 0.38017815
-0.04674257 -0.16096836 0.38011569
-0.04478246 -0.16104944 0.38012609
-0.043137301 -0.16105013 0.38018855
-0.041075137 -0.16102818 0.38020942
-0.039018057 -0.16102538 0.38027188
-0.036980435 -0.16110647 0.38052881
-0.034931958 -0.16073565 0.38074055
-0.032877415 -0.16075079 0.38083431
-0.030815139 -0.16072777 0.38083431
-0.029165991 -0.16071048 0.38083431
-0.027111178 -0.16072546 0.38091764
-0.025053635 -0.16072428 0.3809593
-0.022997493 -0.16073354 0.38102177
-0.020946592 -0.16078372 0.38117802
-0.018891433 -0.16080914 0.38127175
-0.016834531 -0.16082275 0.38133428
-0.015186822 -0.1608137 0.38133428
-0.013126194 -0.16078629 0.38129261
-0.011065936 -0.16075581 0.38124052
-0.0090086516 -0.16076213 0.38127181
-0.0069517987 -0.16078292 0.38133428
-0.0048949621 -0.16082294 0.3814384
-0.0028379187 -0.16090825 0.38164672
-0.0011906093 -0.16096006 0.38177174
0.00087003509 -0.16103943 0.3819592
0.0029313685 -0.16104113 0.3819592
0.0049928087 -0.16104442 0.3819592
0.0070543974 -0.16104913 0.3819592
0.0091162212 -0.16105543 0.3819592
0.011178308 -0.16106315 0.3819592
0.012828226 -0.16107044 0.3819592
0.2450607 -0.16115104 0.38164672
0.24717073 -0.16108318 0.38092804
0.2488898 -0.16104977 0.38039684
0.25027096 -0.16064452 0.38020939
-0.052606031 -0.15943098 0.3800844
-0.050946176 -0.1589763 0.38010526
-0.048875809 -0.15893143 0.3800844
-0.047642831 -0.15934369 0.3800844
-0.044609606 -0.15900616 0.3800844
-0.04309424 -0.15883872 0.3800844
-0.041040819 -0.1588434 0.38016772
-0.038989868 -0.15885819 0.38027188
-0.036951099 -0.1589268 0.38050103
-0.034909058 -0.15898809 0.38070932
-0.032858569 -0.15901621 0.38083431
-0.030792452 -0.15896749 0.38077182
-0.029146902 -0.15896349 0.38080308
-0.027089885 -0.15895663 0.38083431
-0.025035279 -0.15896431 0.38089681
-0.022980766 -0.15897344 0.3809593
-0.020927878 -0.1589971 0.38105306
-0.018876696 -0.15903969 0.38118842
-0.016823661 -0.15907498 0.38130304
-0.015175836 -0.15905306 0.38127178
-0.01311598 -0.15901716 0.38120928
-0.011058955 -0.15900882 0.38120928
-0.0090022581 -0.15900202 0.38120928
-0.0069457944 -0.15899661 0.38120928
-0.0048904642 -0.15902756 0.38129258
-0.0028354435 -0.15910763 0.38149047
-0.001189955 -0.15918496 0.38167796
0.00086904533 -0.15925042 0.38183418
0.0029291762 -0.15929121 0.38192797
0.0049888133 -0.15928145 0.3818967
0.0070482632 -0.15927303 0.38186544
0.0091076763 -0.15926616 0.38183424
0.011168842 -0.15928683 0.38186544
0.012901788 -0.15907325 0.3819592
0.014053217 -0.15847152 0.3819592
0.24512944 -0.15940979 0.38170922
0.24712388 -0.15929493 0.38114679
0.24886224 -0.15927438 0.38064685
0.25045598 -0.1591094 0.38020936
0.2828187 -0.15910351 0.3800844
-0.050921381 -0.15766822 0.3800844
-0.04926791 -0.15763949 0.3800844
-0.042934258 -0.15725072 0.3800844
-0.041012958 -0.15709625 0.38012609
-0.038961373 -0.15710242 0.38020939
-0.036928073 -0.15718763 0.38048017
-0.034889296 -0.15725695 0.38070932
-0.032829218 -0.15723322 0.38070932
-0.03077003 -0.15721089 0.38070932
-0.029123353 -0.15719414 0.38070932
-0.027071655 -0.15720902 0.38079265
