# .PCD v0.7 - Point Cloud Data file format
VERSION 0.7
FIELDS x y z
SIZE 4 4 4
TYPE F F F
COUNT 1 1 1
WIDTH 1326
HEIGHT 1
VIEWPOINT 0 0 0 1 0 0 0
POINTS 1326
DATA ascii
-0.13881868 -0.073082745 0.37024167
-0.13721433 -0.073084302 0.37042916
-0.13515924 -0.073059283 0.37052289
-0.13311845 -0.07304123 0.37064791
-0.13105859 -0.073011644 0.3707104
-0.12901267 -0.072989061 0.37080413
-0.12699856 -0.072983675 0.37098122
-0.12498262 -0.072976962 0.37114787
-0.12295511 -0.072962917 0.37127283
-0.1209502 -0.072961822 0.37146032
-0.11894694 -0.072961561 0.3716478
-0.11690584 -0.072937436 0.3717103
-0.11486759 -0.072914146 0.37177277
-0.1128415 -0.07289768 0.37186652
-0.11098327 -0.072965175 0.37196025
-0.1091719 -0.072452635 0.37196025
-0.13888513 -0.071315996 0.37014794
-0.13709787 -0.071025461 0.37023127
-0.13507892 -0.071019374 0.37041873
-0.13302457 -0.070994057 0.37050208
-0.13098341 -0.070974879 0.37061319
-0.12894739 -0.070957728 0.37073123
-0.12693323 -0.070952028 0.37090477
-0.1249092 -0.070940435 0.37104371
-0.12289686 -0.070934959 0.37121034
-0.12088618 -0.070930116 0.37137696
-0.11886423 -0.070918143 0.37150204
-0.11685082 -0.070910826 0.37164783
-0.11504502 -0.071003787 0.37169245
-0.11307596 -0.070764981 0.37174153
-0.11115108 -0.070848025 0.3718144
-0.10912967 -0.070832893 0.3719047
-0.10717954 -0.070652142 0.37196025
-0.13688101 -0.069119729 0.37012711
-0.13497709 -0.068970643 0.3702521
-0.13295811 -0.068963744 0.37042916
-0.13090469 -0.068938196 0.37050208
-0.12889062 -0.068932801 0.37067917
-0.12687147 -0.068924226 0.37083539
-0.12484404 -0.068910584 0.37096035
-0.12283974 -0.06890934 0.37114784
-0.12080646 -0.068891332 0.37124157
-0.11919783 -0.068886735 0.37136656
-0.11717568 -0.068873897 0.37148115
-0.115133 -0.068848267 0.37152281
-0.11311245 -0.068834879 0.37162697
-0.11108775 -0.068818271 0.3717103
-0.1090472 -0.068790883 0.37173113
-0.10703341 -0.068779573 0.37183526
-0.1052959 -0.068906732 0.37193942
-0.13656017 -0.067762762 0.37008545
-0.13490213 -0.066938363 0.37015489
-0.13287075 -0.066924967 0.37029377
-0.13084714 -0.066914827 0.37044656
-0.12884244 -0.066914126 0.37064791
-0.12691361 -0.066999979 0.37075728
-0.12497745 -0.066783533 0.37094253
-0.12318301 -0.066885762 0.37104371
-0.1211517 -0.06686902 0.37114093
-0.11912058 -0.066851653 0.37123117
-0.11719107 -0.066933982 0.37130406
-0.11514263 -0.066976205 0.37138528
-0.11303628 -0.067197584 0.37146032
-0.11100678 -0.067177869 0.37152281
-0.10897997 -0.067158759 0.37158534
-0.10697363 -0.067151532 0.3717103
-0.10498074 -0.067152604 0.37187696
-0.10337345 -0.067144766 0.37196025
-0.13445234 -0.065319315 0.37014794
-0.13305137 -0.064822406 0.37021044
-0.13120821 -0.06490206 0.37039793
-0.1291776 -0.064888172 0.37052289
-0.1271601 -0.064880386 0.37067914
-0.12514491 -0.06487333 0.37083539
-0.12312134 -0.064861365 0.37096035
-0.12108663 -0.064842932 0.37104371
-0.11905111 -0.064823255 0.37111658
-0.11690485 -0.064974979 0.37119249
-0.11490186 -0.065020673 0.37123531
-0.11295472 -0.065162092 0.37129366
-0.11093926 -0.065150343 0.37139782
-0.10891385 -0.065131985 0.37146032
-0.10690877 -0.065125227 0.37158534
-0.10490946 -0.065121502 0.37172419
-0.1029212 -0.065124489 0.37189773
-0.10117158 -0.064845182 0.37196025
-0.099267878 -0.064287074 0.37196025
-0.13306409 -0.062986575 0.37016356
-0.13113588 -0.062874816 0.37029377
-0.12911624 -0.062866241 0.37044656
-0.12709384 -0.062856004 0.37058541
-0.12506935 -0.062844038 0.3707104
-0.12305401 -0.062836304 0.3708562
-0.12102286 -0.062819675 0.37094647
-0.11898577 -0.063197002 0.37099162
-0.11695448 -0.063178658 0.37106454
-0.11492892 -0.063162744 0.37114784
-0.11289328 -0.063140318 0.3711895
-0.11086347 -0.063120313 0.37124157
-0.10884869 -0.063108049 0.37133536
-0.10683597 -0.06309633 0.37142909
-0.10484303 -0.06309589 0.37158534
-0.1028427 -0.063090645 0.3717103
-0.10084963 -0.063089661 0.37185609
-0.098838419 -0.063076749 0.37192902
-0.097357452 -0.062930658 0.37196025
-0.13256656 -0.060998451 0.37012711
-0.13107219 -0.060853556 0.37021044
-0.12906568 -0.060851205 0.37039793
-0.12701814 -0.060828887 0.37046042
-0.125016 -0.060827818 0.37064791
-0.12297407 -0.060806766 0.3707104
-0.12094206 -0.060789883 0.37079373
-0.11893197 -0.061181005 0.37091872
-0.11688309 -0.061153676 0.37093258
-0.11485457 -0.061136167 0.37100205
-0.11292241 -0.061215196 0.3710385
-0.11097305 -0.060987763 0.37112111
-0.10918659 -0.061089102 0.3711895
-0.10716583 -0.061072733 0.371252
-0.10517096 -0.06107064 0.37139782
-0.10316607 -0.061062243 0.37150198
-0.10115724 -0.061051104 0.37158534
-0.09915787 -0.061044913 0.37169641
-0.0971618 -0.061040524 0.37181446
-0.095266528 -0.060937382 0.37192899
-0.093142599 -0.060220256 0.37196025
-0.091930225 -0.060207114 0.37196025
-0.13225237 -0.059649672 0.37008545
-0.13094133 -0.058999371 0.37016046
-0.12899235 -0.058827385 0.37027988
-0.12697943 -0.058821458 0.37043956
-0.12506129 -0.059033204 0.37051398
-0.12291859 -0.059189238 0.37061667
-0.12089109 -0.059174541 0.3707104
-0.11883584 -0.059145484 0.3707104
-0.11697309 -0.059211306 0.37078542
-0.11501937 -0.059032548 0.37083539
-0.11316679 -0.059102274 0.37092912
-0.11113923 -0.059083793 0.37098122
-0.10911112 -0.059064262 0.37102288
-0.10710388 -0.059055209 0.37112704
-0.10509259 -0.059043348 0.37121034
-0.10309502 -0.059038777 0.3713353
-0.1010905 -0.059029702 0.37142906
-0.09907683 -0.059014589 0.37148118
-0.097087018 -0.059013225 0.37161654
-0.095098615 -0.059012439 0.37175193
-0.093113892 -0.059013791 0.37189776
-0.091109924 -0.059002396 0.37196025
-0.089088574 -0.058583193 0.37196025
-0.12891544 -0.056804035 0.37014794
-0.12690265 -0.056798011 0.3703042
-0.12478291 -0.05708649 0.37042916
-0.12284438 -0.057166994 0.37048125
-0.12103475 -0.057261091 0.37051398
-0.11907414 -0.057031062 0.37058538
-0.11714032 -0.057111368 0.37062708
-0.11510129 -0.057088844 0.37065485
-0.11308634 -0.057077553 0.37075207
-0.11107792 -0.057068985 0.37086314
-0.10905515 -0.057052378 0.37091872
-0.10703501 -0.057036299 0.37097424
-0.10503291 -0.057029378 0.37108532
-0.10302127 -0.057016566 0.37115481
-0.10101349 -0.057005268 0.37123117
-0.09901157 -0.05699677 0.37132144
-0.097024091 -0.056996118 0.37146032
-0.095041469 -0.056998167 0.37161312
-0.093045868 -0.056992162 0.3717103
-0.091051877 -0.056986682 0.37180749
-0.089062661 -0.05698381 0.37191859
-0.087158211 -0.056872193 0.37196022
-0.085039213 -0.05615614 0.37196025
-0.12833501 -0.055325676 0.37012711
-0.12684722 -0.05518353 0.37021044
-0.12497626 -0.055248577 0.37028542
-0.12303035 -0.055076838 0.37038544
-0.12114365 -0.055133484 0.37039793
-0.11911092 -0.055115938 0.37046042
-0.11706109 -0.055089682 0.37046042
-0.11502136 -0.055067141 0.37048125
-0.11301956 -0.055062123 0.37061667
-0.11100736 -0.055051431 0.3707104
-0.1089879 -0.055036683 0.3707729
-0.10697108 -0.055022415 0.37083539
-0.10497427 -0.055017866 0.37096035
-0.10296181 -0.055004667 0.37102285
-0.10096005 -0.054996558 0.37111658
-0.098960303 -0.054988939 0.37121034
-0.09697026 -0.05498644 0.37133533
-0.094981782 -0.054984454 0.37146032
-0.092986539 -0.054978341 0.37155408
-0.091003291 -0.054978851 0.37168947
-0.089000985 -0.054967508 0.37174153
-0.087025046 -0.054972041 0.37189773
-0.085028373 -0.054963149 0.37196025
-0.083179392 -0.054867458 0.37196025
-0.081009284 -0.05453109 0.37196025
-0.079004921 -0.054514557 0.37196025
-0.077002555 -0.054498471 0.37196025
-0.075002395 -0.054482859 0.37196025
-0.073004127 -0.054467671 0.37196025
-0.12666039 -0.053703684 0.37012711
-0.12514839 -0.053154077 0.37014794
-0.12311092 -0.053136326 0.37021044
-0.12106952 -0.053116154 0.3702521
-0.11902697 -0.053094536 0.37027988
-0.11699625 -0.053077485 0.37033543
-0.11496421 -0.053058855 0.37037709
-0.11294129 -0.053043675 0.37043956
-0.11093363 -0.053035155 0.37054378
-0.10892791 -0.053027004 0.37064791
-0.1069123 -0.053013418 0.3707104
-0.10489898 -0.053000357 0.37077287
-0.1029112 -0.052999664 0.37091863
-0.10091332 -0.052993521 0.37102285
-0.098924644 -0.052991766 0.37115481
-0.096922778 -0.052982595 0.37123117
-0.094937041 -0.05298188 0.37136307
-0.092938595 -0.052973595 0.37143949
-0.090941973 -0.052965872 0.3715159
-0.088960201 -0.052966457 0.37164783
-0.086966604 -0.052959554 0.37172419
-0.084982328 -0.05295812 0.37183526
-0.082990058 -0.052951176 0.37190467
-0.080996133 -0.052942585 0.37196025
-0.079093263 -0.053144194 0.37188885
-0.076889701 -0.053236742 0.37146032
-0.074925922 -0.053245172 0.37162694
-0.072879434 -0.053014766 0.37178525
-0.071088448 -0.052626532 0.37185314
-0.069395646 -0.052063666 0.37196025
-0.12304861 -0.051522434 0.37008545
-0.1209897 -0.051098622 0.37008545
-0.11896642 -0.051085729 0.37016878
-0.11693247 -0.051067475 0.37021044
-0.11488876 -0.051044051 0.37021044
-0.11286724 -0.051029779 0.37027293
-0.11086718 -0.051024523 0.37039793
-0.10885055 -0.051011126 0.37046042
-0.10684845 -0.051004071 0.37056458
-0.10485115 -0.050998777 0.37067917
-0.1028499 -0.050991137 0.37077293
-0.100876 -0.050996806 0.37096035
-0.098875165 -0.050988659 0.37104368
-0.09689796 -0.050992385 0.37121034
-0.094884403 -0.050976574 0.37123117
-0.092894047 -0.050972585 0.37133533
-0.090905219 -0.050969098 0.37143949
-0.088905193 -0.050958872 0.37149158
-0.086926691 -0.050960537 0.37162697
-0.084937103 -0.050955396 0.3717103
-0.082944393 -0.050947975 0.37177277
-0.081069589 -0.051062632 0.37175193
-0.07313747 -0.051653057 0.3707104
-0.070847206 -0.050789323 0.37125197
-0.068965942 -0.050855804 0.37183526
-0.067791335 -0.050469209 0.37196025
-0.11871827 -0.049677987 0.37008545
-0.11679779 -0.049221925 0.37011045
-0.11484458 -0.04904544 0.370141
-0.11282607 -0.049032677 0.37021044
-0.11090625 -0.049117956 0.37025732
-0.1089552 -0.048890594 0.37029973
-0.10719173 -0.049001634 0.37041879
-0.10517854 -0.048988897 0.37047431
-0.10289766 -0.049088549 0.37064791
-0.10097551 -0.048872795 0.37076399
-0.09883409 -0.048991777 0.37096035
-0.096846826 -0.048990041 0.37108532
-0.094857536 -0.048986848 0.37119645
-0.092850395 -0.048974041 0.37123117
-0.090865999 -0.048972648 0.37134922
-0.088866077 -0.04896256 0.37139782
-0.086874686 -0.048956461 0.37147421
-0.084892623 -0.048955422 0.37158534
-0.083117031 -0.049055297 0.37158531
-0.081974879 -0.048868112 0.37108535
-0.070386082 -0.049561627 0.37096035
-0.068800554 -0.048982274 0.37143534
-0.067186177 -0.048751123 0.37181741
-0.06497997 -0.048070449 0.37189776
-0.11480983 -0.047447655 0.37008545
-0.11317447 -0.047033593 0.37008545
-0.11115695 -0.047021169 0.37014794
-0.10914219 -0.047009092 0.37021044
-0.10711161 -0.046989538 0.37021044
-0.1051079 -0.046981078 0.37029374
-0.10312064 -0.046979561 0.37042916
-0.10113495 -0.046978533 0.37056458
-0.098931625 -0.047065869 0.37078539
-0.097031593 -0.046909504 0.37093538
-0.094811894 -0.046988878 0.37108532
-0.092828445 -0.046988118 0.37121034
-0.090820737 -0.04697467 0.37123117
-0.08882767 -0.04696817 0.37130409
-0.08683639 -0.046962086 0.37137696
-0.084806278 -0.046934135 0.37127286
-0.08353623 -0.047281176 0.37096035
-0.066870742 -0.047224835 0.37137699
-0.064896807 -0.046829566 0.37146032
-0.062986113 -0.046873782 0.37189779
-0.061405774 -0.046478074 0.37196025
-0.1126163 -0.045572009 0.37008545
-0.11103873 -0.045186497 0.37008545
-0.10909022 -0.045011319 0.37009934
-0.10706872 -0.044996221 0.37012711
-0.10505015 -0.044981506 0.37015489
-0.10304762 -0.044973031 0.37023127
-0.10107759 -0.044978593 0.37041879
-0.099097185 -0.044979353 0.37056458
-0.097136237 -0.044988949 0.37077984
-0.095161378 -0.044992168 0.37093952
-0.093176991 -0.0449908 0.37105757
-0.091017716 -0.045099322 0.37115675
-0.089079581 -0.044873554 0.37116349
-0.087164424 -0.044954371 0.37112701
-0.08564955 -0.04544577 0.37091872
-0.064363152 -0.045550875 0.3707104
-0.062777214 -0.045062065 0.37138891
-0.060970042 -0.044873718 0.37177277
-0.059536565 -0.044357762 0.37191859
-0.1070423 -0.043405641 0.37008545
-0.1048123 -0.043188658 0.37008545
-0.10299866 -0.042979233 0.37011671
-0.10102117 -0.042981025 0.3702729
-0.099053115 -0.042986769 0.37046042
-0.097085811 -0.042992946 0.37064791
-0.095111117 -0.042995825 0.37080416
-0.093137525 -0.042999029 0.37096035
-0.091149203 -0.042995401 0.37105408
-0.089272946 -0.043047711 0.37093538
-0.062470354 -0.04303636 0.37083539
-0.060904179 -0.042860836 0.37142909
-0.059384257 -0.042900424 0.37183529
-0.10277344 -0.041193187 0.37008545
-0.10098472 -0.040993832 0.37019655
-0.099004336 -0.040994197 0.37033543
-0.097039908 -0.041000988 0.37052989
-0.095072471 -0.041006614 0.37071037
-0.093098789 -0.041009501 0.37086311
-0.091169223 -0.041154247 0.37086037
-0.089821436 -0.041747048 0.37058541
-0.062265288 -0.041365314 0.37091872
-0.060903806 -0.040896203 0.37148118
-0.058985829 -0.040931284 0.3718769
-0.057410318 -0.040145196 0.37196025
-0.1009566 -0.039011218 0.37014794
-0.098964833 -0.039006948 0.3702417
-0.096991271 -0.039009593 0.37039793
-0.095026612 -0.039015882 0.37058541
-0.093202129 -0.039093278 0.3706854
-0.060517844 -0.039329723 0.37158531
-0.058944464 -0.03893828 0.37166861
-0.057004694 -0.038957752 0.37192902
-0.100696 -0.037140012 0.37008545
-0.098937474 -0.037025847 0.37018958
-0.097042538 -0.037119064 0.37025729
-0.094944209 -0.037406694 0.37030417
-0.093780272 -0.037809692 0.37046042
-0.058442153 -0.037689291 0.37102288
-0.056816351 -0.037078656 0.37126034
-0.055269878 -0.036711756 0.37185609
-0.10010605 -0.035048407 0.37008545
-0.098896958 -0.035041049 0.37008545
-0.097724147 -0.035440434 0.37021044
-0.054768898 -0.03503605 0.37136033
-0.053015366 -0.034993615 0.371804
-0.051850319 -0.034610908 0.37196025
-0.099292636 -0.033859149 0.37008545
-0.054092038 -0.033359002 0.37108535
-0.053006217 -0.033416793 0.37177277
-0.051577955 -0.033556875 0.37191859
-0.044737071 -0.032231975 0.37196025
-0.043159977 -0.03222841 0.37196025
-0.040795535 -0.032223288 0.37196025
-0.038826264 -0.032219246 0.37196025
-0.048679318 -0.030668491 0.37196025
-0.046943378 -0.030979004 0.37196025
-0.045128811 -0.031053532 0.37196025
-0.04315016 -0.031044111 0.37189779
-0.040945299 -0.031119172 0.37191027
-0.039057389 -0.03096037 0.37193528
-0.037380334 -0.030906931 0.37196025
-0.050643709 -0.02988169 0.37189776
-0.048991963 -0.029253816 0.37196025
-0.047086596 -0.029086037 0.3718769
-0.045101915 -0.029073797 0.37177277
-0.043127686 -0.029067159 0.37173808
-0.041155566 -0.029061206 0.3717103
-0.039193615 -0.029062105 0.37176582
-0.036845546 -0.029067904 0.37189078
-0.034884799 -0.028677426 0.37196025
-0.032918133 -0.028281979 0.37196025
-0.048672389 -0.027523505 0.37196025
-0.047058862 -0.027107729 0.37168947
-0.04507158 -0.027094189 0.37155408
-0.043099046 -0.027088352 0.37152281
-0.04113134 -0.027084986 0.37152284
-0.039175674 -0.027089365 0.37162697
-0.036822531 -0.027090279 0.37168947
-0.034864921 -0.027093552 0.37177277
-0.032909114 -0.027098449 0.37187693
-0.030951327 -0.027101958 0.37196025
-0.029379273 -0.026707683 0.37196025
-0.046454739 -0.025625357 0.37108532
-0.045046616 -0.025120115 0.37137699
-0.04308854 -0.025122598 0.37146032
-0.04112133 -0.025119582 0.37146032
-0.039155215 -0.025116727 0.37146032
-0.03680259 -0.025117327 0.3715159
-0.034848604 -0.025122343 0.37162697
-0.032891911 -0.025125515 0.3717103
-0.03093341 -0.025127517 0.37177277
-0.028978238 -0.025132485 0.3718769
-0.027099591 -0.024979213 0.37196025
-0.02584268 -0.024350515 0.37196025
-0.080727279 -0.023632621 0.37146032
-0.079115108 -0.023230279 0.37139782
-0.045007966 -0.023141656 0.37108535
-0.043075964 -0.023156708 0.37137699
-0.041104719 -0.023151407 0.37133533
-0.039141558 -0.023150206 0.37135616
-0.036790475 -0.023151265 0.37141863
-0.034830689 -0.023151573 0.37146032
-0.032871298 -0.023152107 0.37150201
-0.030920977 -0.023159228 0.3716478
-0.028964972 -0.023162527 0.37173113
-0.027012587 -0.023169238 0.37186649
-0.025213633 -0.02309515 0.37196025
-0.084318787 -0.020488331 0.37146032
-0.077264801 -0.020404313 0.37021044
-0.042782649 -0.021443337 0.37112701
-0.041083861 -0.021182625 0.3711687
-0.039125379 -0.021183588 0.37122422
-0.037164491 -0.021183154 0.37125197
-0.035209484 -0.021185918 0.37133533
-0.032864496 -0.021190017 0.37144646
-0.030905306 -0.021190288 0.37148118
-0.028954063 -0.021196254 0.37161309
-0.027001217 -0.021201439 0.37173113
-0.025045825 -0.021205273 0.37182137
-0.023091914 -0.02121065 0.37193942
-0.021327578 -0.020622794 0.37196025
-0.012898427 -0.020423211 0.37196025
-0.010939154 -0.020422647 0.37196025
-0.0093719028 -0.020422261 0.37196025
-0.084154569 -0.018875884 0.37075207
-0.076902002 -0.018842988 0.37039095
-0.074856758 -0.0188249 0.37010625
-0.072968021 -0.018722573 0.37008545
-0.071282163 -0.018033873 0.37008545
-0.042265922 -0.019619444 0.37121034
-0.041083694 -0.018833969 0.3711895
-0.0391143 -0.0188297 0.3711409
-0.037156012 -0.01883048 0.3711895
-0.035195604 -0.018829891 0.37121034
-0.032852702 -0.018834485 0.3713353
-0.030900026 -0.018838344 0.37143946
-0.028941609 -0.01883878 0.37147427
-0.026984513 -0.01884008 0.37152281
-0.025031308 -0.018844262 0.37162697
-0.023076335 -0.018847411 0.3717103
-0.021120261 -0.018850014 0.37177971
-0.019165395 -0.018854089 0.37187696
-0.017305188 -0.018757211 0.37191337
-0.014857496 -0.018856594 0.37196022
-0.012897271 -0.018855004 0.37193942
-0.010937548 -0.018853502 0.37191856
-0.008979816 -0.018855121 0.37196025
-0.0075433119 -0.018332569 0.37196025
-0.083398074 -0.016522784 0.37096035
-0.080285266 -0.01653453 0.37133533
-0.078716479 -0.01732523 0.37146032
-0.076870106 -0.017266341 0.3702521
-0.074849896 -0.017255474 0.37008545
-0.073262945 -0.017253069 0.37008545
-0.041039284 -0.016858596 0.37080416
-0.039100267 -0.016867051 0.37102285
-0.037144102 -0.016868442 0.37108535
-0.035194185 -0.016872818 0.37121034
-0.032845818 -0.016874211 0.3712728
-0.030890144 -0.016875885 0.37133533
-0.02893611 -0.016878653 0.37141863
-0.026978925 -0.016879508 0.37146032
-0.025019152 -0.01687859 0.37146032
-0.023061857 -0.016879193 0.37149155
-0.021108359 -0.016882693 0.37158528
-0.019154463 -0.01688624 0.37167907
-0.017197156 -0.016887002 0.3717103
-0.01484944 -0.016889248 0.37177277
-0.012890983 -0.016888777 0.37177277
-0.010932854 -0.016888384 0.37177277
-0.0089764725 -0.016890829 0.37183526
-0.0070204004 -0.016895335 0.37193942
-0.005453987 -0.016504426 0.37196025
-0.081000969 -0.01573229 0.37096035
-0.040797021 -0.015081666 0.37039793
-0.039082043 -0.014904165 0.37086317
-0.037132472 -0.014907823 0.37098122
-0.035189029 -0.014914308 0.3711687
-0.032840542 -0.014915435 0.37122422
-0.030885706 -0.014917401 0.37129363
-0.028926624 -0.01491711 0.37130752
-0.026965981 -0.014915816 0.37129366
-0.025007153 -0.014915111 0.37129366
-0.02305148 -0.01491622 0.37133536
-0.021097519 -0.014918331 0.3714048
-0.019142596 -0.014920022 0.37146032
-0.017187616 -0.014921774 0.3715159
-0.01484151 -0.014924149 0.37158537
-0.012884106 -0.01492379 0.37158528
-0.010928631 -0.014925634 0.37164086
-0.0089726811 -0.014927294 0.37168947
-0.0070176776 -0.014931891 0.37180746
-0.0050619021 -0.014937007 0.37193942
-0.0032996992 -0.01435028 0.37196025
-0.04085895 -0.012802254 0.37037709
-0.039067298 -0.01294406 0.37073123
-0.037126355 -0.012950224 0.37092912
-0.035180286 -0.012954981 0.37108538
-0.032838557 -0.012958501 0.37121034
-0.030878045 -0.012957883 0.37121034
-0.028918339 -0.012957308 0.37121034
-0.026957061 -0.012955713 0.3711791
-0.024996748 -0.012954161 0.37114787
-0.023039307 -0.012953704 0.37114787
-0.021086017 -0.012955408 0.37121034
-0.019132545 -0.012957281 0.3712728
-0.017180787 -0.01296056 0.37137696
-0.014835313 -0.01296237 0.37143949
-0.012879489 -0.012962828 0.37146032
-0.010923687 -0.012963369 0.37148118
-0.0089700017 -0.012966813 0.37158531
-0.0070153563 -0.012970343 0.37168947
-0.0050599584 -0.012974259 0.371804
-0.003103626 -0.012978924 0.37193942
-0.0012761754 -0.012849082 0.37196025
2.9283676e-05 -0.012588028 0.37196025
-0.04266436 -0.010713223 0.37016878
-0.040996071 -0.010981175 0.37043962
-0.039057139 -0.010986754 0.37064096
-0.037110161 -0.010990284 0.37077293
-0.035167929 -0.010995399 0.37096035
-0.032825749 -0.010998317 0.37107146
-0.030870652 -0.010999546 0.37112701
-0.028906038 -0.010997186 0.3710576
-0.026943767 -0.010995202 0.37100205
-0.024986561 -0.010994918 0.37100205
-0.023029923 -0.010994658 0.37100205
-0.021076949 -0.01099607 0.37105763
-0.01912581 -0.010998532 0.37114787
-0.017174108 -0.011000962 0.37123811
-0.014830934 -0.011003678 0.3713353
-0.012878574 -0.011006612 0.37143946
-0.010922977 -0.011007073 0.37146032
-0.0089678364 -0.01100826 0.37150195
-0.0070143142 -0.011012294 0.37164089
-0.005058927 -0.011014939 0.37173113
-0.0031023752 -0.011016843 0.3717936
-0.0011454242 -0.0110199 0.37189779
0.00081249978 -0.011020925 0.37193245
0.0031623854 -0.011021748 0.37196022
0.0051206909 -0.011021824 0.37196025
0.0062956982 -0.010238675 0.37196025
-0.044750433 -0.0088903354 0.37012711
-0.042944681 -0.0090254629 0.37033543
-0.040998079 -0.009028364 0.37046042
-0.039048836 -0.0090307919 0.37056458
-0.037103646 -0.0090341978 0.3707104
-0.035155784 -0.0090371715 0.37083539
-0.032815706 -0.0090400456 0.37096035
-0.030856563 -0.0090399487 0.37096035
-0.028898219 -0.0090398593 0.37096035
-0.026940551 -0.0090397792 0.37096035
-0.024983577 -0.0090397066 0.37096035
-0.023027176 -0.0090396423 0.37096035
-0.021071373 -0.0090395845 0.37096035
-0.01912084 -0.0090418532 0.37105411
-0.017171761 -0.0090450989 0.3711895
-0.01482753 -0.009046603 0.37125197
-0.012874907 -0.0090485616 0.37133533
-0.010921645 -0.0090506179 0.37141863
-0.0089668278 -0.0090515763 0.37146032
-0.0070120557 -0.0090531148 0.37152281
-0.0050573414 -0.0090554105 0.37161654
-0.0031015202 -0.0090571837 0.37168947
-0.0011448842 -0.0090576839 0.3717103
0.00081209099 -0.0090592932 0.37177277
0.0031614944 -0.0090613142 0.37185609
0.0051206253 -0.0090638669 0.37196025
0.0066873594 -0.0090639014 0.37196025
-0.046052907 -0.007067217 0.37008545
-0.044891354 -0.007069733 0.37021044
-0.042949636 -0.0070731244 0.37037709
-0.04099812 -0.0070749172 0.37046042
-0.039042275 -0.0070759677 0.37050211
-0.037091132 -0.0070777764 0.37058544
-0.035144016 -0.0070803147 0.3707104
-0.032803409 -0.0070826719 0.37082151
-0.030851381 -0.0070842938 0.37089789
-0.02889502 -0.0070848456 0.37091866
-0.026937567 -0.0070849941 0.37091872
-0.024979906 -0.0070848665 0.3709048
-0.023023358 -0.0070848637 0.37089786
-0.02107059 -0.0070858547 0.37094647
-0.019116076 -0.0070862025 0.37096035
-0.017167578 -0.0070890179 0.37109926
-0.01482594 -0.0070911944 0.37121034
-0.012871305 -0.0070917192 0.37123117
-0.010917606 -0.0070927646 0.37127978
-0.008964845 -0.0070946882 0.37137699
-0.0070104366 -0.0070957746 0.37143251
-0.0050555342 -0.0070967344 0.37148118
-0.0031000222 -0.0070972135 0.37150204
-0.0011442628 -0.0070972405 0.37150201
0.00081178226 -0.0070994389 0.37161312
0.0031602532 -0.0071012178 0.3717103
0.0051186257 -0.0071032778 0.37181446
0.007078819 -0.0071056834 0.37194633
0.0086459368 -0.0063226819 0.37196025
0.023149827 -0.0063218451 0.37196025
0.025268834 -0.0066351416 0.37196025
0.027074486 -0.0067133713 0.37196025
0.028880775 -0.0066348305 0.37196025
0.030609069 -0.0063210875 0.37196025
-0.046449549 -0.0051150685 0.37011671
-0.044891737 -0.0051168716 0.37021044
-0.042942811 -0.0051189042 0.3703146
-0.040994987 -0.0051210485 0.37042916
-0.039038282 -0.0051219715 0.37046042
-0.037078992 -0.005122473 0.37046042
-0.035130467 -0.0051244544 0.37056458
-0.032792043 -0.0051266793 0.37068954
-0.030838653 -0.0051278342 0.37074164
-0.028883925 -0.005128697 0.37077293
-0.026929459 -0.0051294714 0.37080416
-0.024975432 -0.0051302188 0.37083539
-0.023019668 -0.0051305434 0.37083539
-0.021065645 -0.005131152 0.3708562
-0.019114615 -0.0051324461 0.37092912
-0.017162323 -0.0051334039 0.37098122
-0.01482188 -0.0051353979 0.37110618
-0.012869613 -0.0051366119 0.3711791
-0.010915703 -0.0051371786 0.37121034
-0.0089609139 -0.0051373215 0.37121034
-0.0070075262 -0.0051383688 0.37127283
-0.0050531724 -0.0051388601 0.37130409
-0.0030991945 -0.0051402552 0.37139782
-0.0011439668 -0.0051402962 0.37139779
0.00081138057 -0.0051408424 0.37143946
0.0031588345 -0.0051422901 0.37154365
0.0051168031 -0.0051441118 0.37167907
0.0070760599 -0.0051456401 0.3717936
0.0090370094 -0.0051474106 0.37192899
0.010800741 -0.0049518817 0.37196025
0.016875219 -0.0047554704 0.37196025
0.019031594 -0.0049510701 0.37196025
0.02118854 -0.0051466641 0.37196025
0.023149967 -0.0051463889 0.37196025
0.02511058 -0.0051458213 0.37193942
0.027070135 -0.0051449635 0.37189776
0.029036494 -0.0051451442 0.37193942
0.031002164 -0.0051450352 0.37196025
0.032770608 -0.0049486398 0.37196025
-0.046250187 -0.0033574551 0.37008545
-0.044887472 -0.0031636625 0.37016878
-0.042933103 -0.0031650115 0.37022433
-0.040976141 -0.0031662032 0.3702521
-0.039017014 -0.0031670553 0.37025207
-0.037058789 -0.0031678693 0.3702521
-0.035109449 -0.0031694407 0.3703354
-0.032995924 -0.0032828336 0.37046045
-0.031117123 -0.003075114 0.37055418
-0.028874099 -0.0031741946 0.37064096
-0.026921624 -0.0031751394 0.37068954
-0.024968363 -0.0031759806 0.37072429
-0.023014909 -0.0031767965 0.37075207
-0.021060148 -0.0031772722 0.37075204
-0.019108014 -0.0031780656 0.37079373
-0.0171578 -0.0031792019 0.370877
-0.014815231 -0.0031800964 0.37093258
-0.012863741 -0.003180966 0.37100205
-0.010910536 -0.0031814934 0.37102979
-0.0089580631 -0.0031822494 0.37108532
-0.0070041204 -0.0031824259 0.37108535
-0.0050503262 -0.0031825632 0.37108532
-0.0030970564 -0.003183075 0.3711409
-0.0011432909 -0.0031833379 0.3711687
0.00081099122 -0.0031841814 0.37126586
0.0031574776 -0.0031851223 0.37137696
0.005114147 -0.0031858629 0.37148115
0.0070731938 -0.0031871821 0.37164089
0.0090333493 -0.0031881211 0.37177277
0.010994814 -0.0031889554 0.37189078
0.012954548 -0.0031889176 0.37191859
0.01491388 -0.0031886273 0.37191856
0.016873568 -0.0031882972 0.37191859
0.018832283 -0.003187685 0.37189081
0.021182511 -0.0031868257 0.37184915
0.023139991 -0.0031858871 0.37179363
0.025098391 -0.0031850236 0.37175193
0.027059987 -0.0031844776 0.37175193
0.029026678 -0.0031843346 0.37180749
0.030994033 -0.0031841081 0.37185609
0.03296645 -0.0031841937 0.37194633
0.034933399 -0.0031835728 0.37196025
0.036703624 -0.0025945967 0.37196025
0.038474388 -0.0023976869 0.37196025
0.040836606 -0.0023965284 0.37196025
0.042412248 -0.0023957181 0.37196025
-0.044486035 -0.0016012114 0.37008545
-0.042917967 -0.0014069726 0.37008545
-0.040958486 -0.0016033554 0.37008545
-0.039000209 -0.0016044698 0.37008545
-0.037042823 -0.0016055338 0.37008545
-0.03509054 -0.0012165541 0.37012711
-0.033138707 -0.00082753832 0.37016878
-0.03119283 -0.00082881941 0.37027988
-0.02885554 -0.00083019474 0.37039101
-0.026908884 -0.00083128869 0.37050211
-0.024956061 -0.00083216047 0.37052986
-0.023002706 -0.00083294435 0.37054375
-0.021051355 -0.00083381362 0.37058538
-0.019097885 -0.00083444454 0.37058541
-0.017147455 -0.00083504803 0.37064096
-0.014805719 -0.00083577243 0.3706826
-0.012855486 -0.00083633588 0.37075207
-0.010902776 -0.00083670701 0.37075207
-0.0089503052 -0.00083702122 0.37075207
-0.0069996291 -0.00083754631 0.37083539
-0.0050470894 -0.00083773845 0.37083539
-0.003095364 -0.00083796616 0.37091869
-0.0011427333 -0.0008381338 0.37098119
0.00081061438 -0.00083835545 0.3710576
0.0031561546 -0.00083859934 0.37121034
0.0051123169 -0.00083878572 0.37133536
0.0070697102 -0.0008388462 0.37144646
0.0090280846 -0.00083886209 0.37154365
0.010988145 -0.00083875633 0.37165478
0.012946247 -0.00083841785 0.37166867
0.01490432 -0.00083798281 0.37166867
0.016862754 -0.00083749072 0.37166867
0.018821649 -0.00083693344 0.37166867
0.021174558 -0.00083619048 0.37169641
0.023135528 -0.00083550479 0.3717103
0.025096364 -0.00083475187 0.3717103
0.027057797 -0.00083394209 0.3717103
0.029021081 -0.00083312747 0.37172419
0.030993244 -0.00083241495 0.37183526
0.032957602 -0.00083141762 0.37183526
0.034928642 -0.00083059067 0.37189773
0.036899902 -0.0008295211 0.37194633
0.038866691 -0.00082834385 0.37193942
0.040833011 -0.00082709984 0.37191856
0.043196525 -0.00082553201 0.37191856
0.045167301 -0.00082416064 0.37191859
0.047027539 -0.00059845485 0.37192455
0.048986752 -0.00029775477 0.37196025
0.050698221 -3.4481593e-05 0.37196025
-0.031180777 0.00073213078 0.37012711
-0.028839253 0.0011209449 0.37016878
-0.026893184 0.0011201373 0.37027293
-0.024941018 0.0011191599 0.37029377
-0.022994462 0.0011185498 0.37039793
-0.02104144 0.0011176852 0.37039793
-0.019088894 0.0011168928 0.37039793
-0.017139731 0.0011164366 0.37046042
-0.014797392 0.0011156828 0.37046042
-0.012847991 0.0011152592 0.37052292
-0.010896421 0.0011147953 0.37052295
-0.0089450879 0.0011144036 0.37052292
-0.0069958991 0.0011144291 0.37062708
-0.0050447145 0.0011142321 0.37064791
-0.0030937344 0.0011143304 0.3707104
-0.0011421536 0.0011143688 0.3707729
0.00081029581 0.0011148277 0.37091866
0.003154922 0.0011153005 0.37104368
0.0051103346 0.001115882 0.3711791
0.0070666838 0.0011164205 0.3712728
0.0090248138 0.0011170704 0.37139782
0.010981567 0.0011175555 0.37141863
0.012939442 0.0011181973 0.37146032
0.01489649 0.0011187525 0.37146032
0.016853895 0.0011193797 0.37146032
0.018813914 0.0011201712 0.37150201
0.021168942 0.0011214173 0.37158534
0.023134429 0.0011225424 0.37167907
0.025097245 0.0011236275 0.3717103
0.027058747 0.0011246577 0.3717103
0.029020982 0.0011257705 0.3717103
0.030989122 0.0011270792 0.37177277
0.032953221 0.0011283472 0.37177277
0.034918107 0.0011296875 0.37177277
0.036883947 0.0011311107 0.37177277
0.038850661 0.0011326064 0.37177277
0.040813819 0.0011341017 0.37173113
0.04317385 0.0011360534 0.3717103
0.045143586 0.0011377971 0.3717103
0.047117244 0.0011396658 0.37173113
0.049099077 0.0011417783 0.371804
0.051091626 0.0011441888 0.37193942
0.05267553 0.0015387951 0.37196025
-0.028052103 0.0022904119 0.37008545
-0.026880238 0.0022896836 0.37008545
-0.024776693 0.0026009094 0.37016043
-0.022979727 0.002677826 0.37014794
-0.02102934 0.0030669787 0.37016878
-0.019080022 0.00306637 0.37021044
-0.017130841 0.0030658606 0.37025207
-0.014791321 0.0030652701 0.37029374
-0.012843494 0.003065333 0.37037709
-0.010893393 0.0030650066 0.37040487
-0.0089429608 0.003064652 0.37041876
-0.0069930982 0.0030647144 0.37046045
-0.0050423793 0.0030644313 0.37046042
-0.0030922997 0.0030647051 0.37052989
-0.0011417916 0.0030656138 0.37064791
0.00080992753 0.0030663919 0.37073815
0.0031535754 0.0030676047 0.370877
0.0051080934 0.0030688692 0.37100205
0.0070636356 0.003069916 0.37109926
0.0090196468 0.0030709372 0.3711687
0.01097632 0.0030718849 0.37122422
0.012933508 0.0030728625 0.3712728
0.014891052 0.0030738541 0.37130752
0.016850857 0.0030751622 0.37137696
0.018811919 0.0030766584 0.37144646
0.021166008 0.0030783881 0.3715159
0.023129582 0.0030800554 0.37158534
0.025095599 0.0030818505 0.37166867
0.027059941 0.003083505 0.3717103
0.029022267 0.0030848556 0.3717103
0.030985281 0.0030862938 0.3717103
0.032945439 0.0030873986 0.37166867
0.034909867 0.0030890249 0.37166867
0.036875237 0.0030907516 0.37166867
0.038841493 0.0030925665 0.37166867
0.040802673 0.0030939903 0.37161309
0.043161228 0.0030961188 0.37158537
0.045130391 0.0030982355 0.37158534
0.047102578 0.0031005978 0.37159923
0.049083322 0.0031035424 0.37166867
0.051070079 0.0031068204 0.37176582
0.053069841 0.0031107545 0.37193942
0.054259621 0.0035055217 0.37196025
-0.017123813 0.004624153 0.37008545
-0.01478631 0.0050138128 0.37014794
-0.012838367 0.0050139595 0.37021044
-0.010888826 0.0050135711 0.37023127
-0.0089398921 0.0050135436 0.37027293
-0.00699026 0.0050134179 0.37029377
-0.0050413213 0.0050140871 0.37036669
-0.0030917109 0.0050148736 0.37043956
-0.0011413486 0.005015457 0.37049165
0.00080970366 0.0050167213 0.37058541
0.0031521388 0.0050183008 0.37068954
0.0051065357 0.0050209272 0.37086663
0.0070609855 0.0050222813 0.37093952
0.0090150591 0.0050230436 0.37096035
0.010971542 0.0050247037 0.37104368
0.012929808 0.0050267703 0.37114787
0.014887903 0.0050284779 0.37121034
0.016845627 0.0050297659 0.37124157
0.01880944 0.0050326488 0.37137699
0.02116386 0.0050351364 0.37146032
0.023124984 0.0050367769 0.37149158
0.025089854 0.0050391438 0.37156448
0.02705225 0.0050409189 0.37158531
0.029015599 0.0050427672 0.37160614
0.030973833 0.0050437404 0.37155405
0.03293423 0.0050450922 0.37152281
0.034897979 0.0050470037 0.37152281
0.036862686 0.0050490345 0.37152281
0.038821734 0.005050384 0.37146032
0.040788043 0.0050526359 0.37146032
0.043146495 0.0050551738 0.37143946
0.045113735 0.00505751 0.37142909
0.047087397 0.0050605759 0.37146032
0.04906252 0.0050636814 0.37149158
0.051059384 0.0050689611 0.37166867
0.053066708 0.0050750254 0.37189776
0.05426193 0.0050776959 0.37196025
-0.014004329 0.006182455 0.37008545
-0.012704597 0.0064418814 0.37008545
-0.0107886 0.0068641347 0.37011671
-0.0089379027 0.0069619901 0.37016878
-0.0069888476 0.0069620791 0.37019655
-0.0050395173 0.0069619957 0.37021044
-0.0030904484 0.0069627124 0.37026596
-0.0011411251 0.0069650696 0.37039793
0.00080940523 0.0069660526 0.37044656
0.0031512657 0.0069682566 0.37055764
0.0051044091 0.0069710589 0.37068954
0.0070583723 0.0069731241 0.37077984
0.0090135951 0.0069754827 0.37087703
0.010969331 0.0069775092 0.37094647
0.012926273 0.0069796685 0.37102285
0.014883861 0.0069817882 0.37108538
0.016844286 0.006984795 0.3711895
0.018803529 0.0069868919 0.37123811
0.021161254 0.0069913003 0.37139088
0.023124419 0.006994104 0.37146032
0.025084311 0.0069956761 0.37146032
0.027047833 0.0069980635 0.37150201
0.029008163 0.0069996566 0.37148815
0.030967942 0.007001135 0.37146032
0.032930698 0.0070032147 0.37146032
0.034894239 0.0070054121 0.37146032
0.03685873 0.0070077456 0.37146032
0.039110877 0.0071070166 0.37138218
0.041003287 0.0068990579 0.37135315
0.043128971 0.0070122983 0.37126586
0.045095008 0.0070148967 0.37125197
0.047074482 0.0070194984 0.3713353
0.04905862 0.0070246011 0.37143946
0.051053017 0.0070308945 0.3715992
0.053052112 0.0070375879 0.37177277
0.05483067 0.0071565961 0.37196022
-0.0089363549 0.0085202977 0.37008545
-0.0068312809 0.0088317106 0.37008545
-0.0050385324 0.0089100469 0.37011668
-0.0030899879 0.0089115445 0.37018958
-0.0011406916 0.0089126509 0.37024167
0.00080929493 0.0089149103 0.37033543
0.0031504517 0.0089176381 0.37043956
0.0051029222 0.0089207012 0.37055418
0.0070571681 0.0089244405 0.37068954
0.0090101771 0.0089255627 0.3707104
0.010966871 0.0089292796 0.37083539
0.012923917 0.0089324303 0.37092912
0.014879824 0.0089342501 0.37096035
0.016839318 0.0089376438 0.37105411
0.018801298 0.0089417119 0.3711687
0.021154789 0.0089454856 0.37125197
0.023118231 0.0089491615 0.37133533
0.025083272 0.0089529036 0.37141863
0.027046666 0.0089558624 0.37146032
0.029008025 0.0089579253 0.37146032
0.030970074 0.0089601232 0.37146032
0.032932967 0.008962472 0.37146032
0.034896642 0.0089649567 0.37146032
0.036854982 0.0089661097 0.37139782
0.039206844 0.0089679277 0.3713353
0.041172877 0.0089708716 0.37133533
0.043125514 0.0089709498 0.37121034
0.045093056 0.0089741834 0.37121034
0.047075067 0.0089801131 0.3713145
0.049060643 0.0089864228 0.37142909
0.05105466 0.0089938529 0.37158534
0.053055767 0.0090022124 0.37177277
0.055054303 0.0090097236 0.37191859
0.05664362 0.0090140123 0.37196025
-0.0028944009 0.010274053 0.37008545
-0.0011404776 0.010860763 0.37014794
0.00080902025 0.010862703 0.37021044
0.0031494922 0.010865254 0.37029377
0.0051011764 0.010868694 0.37039793
0.007053887 0.010871894 0.37048823
0.0090078562 0.0108753 0.37058544
0.010963601 0.010879487 0.37069651
0.012918734 0.010882103 0.37075207
0.01487598 0.010885615 0.37083542
0.016833538 0.010888841 0.37089789
0.018792935 0.010892555 0.37097421
0.021146141 0.01089732 0.37107146
0.023109661 0.010902046 0.3711687
0.025074894 0.010906882 0.37126589
0.027041212 0.010911621 0.37135616
0.029007034 0.010915803 0.37141863
0.030969014 0.010918255 0.37141863
0.032930635 0.010920467 0.3714048
0.034895446 0.010923644 0.37141863
0.036860004 0.010926705 0.37141863
0.039211333 0.0109284 0.37134922
0.041176084 0.010931245 0.3713353
0.043143399 0.010934702 0.3713353
0.045111749 0.01093831 0.3713353
0.047091957 0.010944606 0.37141868
0.049071338 0.010950367 0.37148118
0.051068094 0.010959581 0.37165478
0.05306286 0.010967954 0.3717936
0.055062655 0.010976887 0.37194633
0.056965251 0.011139059 0.37196025
0.058234375 0.011771725 0.37196025
-0.00075052481 0.012419377 0.37008545
0.00090642751 0.01310327 0.37011668
0.0031487294 0.013202902 0.37016878
0.0050994405 0.013205574 0.37023127
0.0070501217 0.013206861 0.3702521
0.0090027405 0.013210502 0.37033546
0.010955316 0.013212958 0.37037709
0.012909935 0.013217013 0.37046042
0.014769245 0.013124479 0.3705698
0.017216446 0.012837466 0.37068954
0.019175332 0.012841956 0.3707729
0.021135755 0.012846676 0.3708562
0.023096766 0.012851232 0.37092912
0.025063509 0.012858075 0.37106451
0.027030651 0.01286443 0.3711791
0.028993251 0.012868084 0.37121034
0.030959511 0.012872888 0.3712728
0.032921735 0.01287578 0.37127283
0.034890614 0.012881069 0.37133533
0.0368549 0.012884318 0.3713353
0.039061062 0.012811402 0.37138534
0.040943764 0.012970058 0.37133533
0.043147102 0.012895878 0.3713353
0.045119457 0.01290098 0.37136656
0.047101229 0.01290838 0.37146032
0.049085196 0.012916012 0.37155408
0.051080033 0.012925949 0.3717103
0.053073324 0.012935002 0.37183526
0.055069417 0.012944254 0.37196025
0.057048999 0.012949327 0.37196025
0.05903016 0.012954595 0.37196025
0.060880903 0.013090922 0.37196025
0.0035381785 0.014760979 0.37008545
0.0050978176 0.014761342 0.37008545
0.0070475023 0.014761976 0.37008545
0.008997364 0.014762786 0.37008545
0.010950032 0.014767122 0.37016878
0.0129003 0.01515785 0.37014794
0.01496617 0.014995182 0.37022829
0.017202945 0.014779205 0.37036321
0.019160999 0.014784914 0.37046042
0.02112148 0.014791356 0.37057155
0.023084035 0.014798298 0.3706896
0.025050441 0.014806522 0.37083536
0.027017297 0.014814111 0.37096035
0.028984159 0.014820769 0.3710576
0.030952049 0.014827331 0.37114787
0.032918114 0.014832493 0.37119645
0.034884159 0.01483721 0.37123117
0.036857046 0.014844384 0.37132141
0.03882375 0.014848702 0.3713353
0.040790159 0.014852639 0.3713353
0.043156102 0.014859344 0.37137696
0.045135092 0.014866978 0.37146032
0.047107499 0.01487213 0.37147421
0.04909673 0.01488218 0.37160614
0.051084887 0.014891273 0.3717103
0.053078372 0.01490143 0.37183526
0.055074655 0.014911804 0.37196022
0.057054427 0.014917355 0.37196025
0.059035785 0.014923121 0.37196022
0.061018582 0.014929074 0.37196025
0.06220901 0.014932741 0.37196025
0.015630258 0.016328689 0.37008545
0.017349035 0.016643768 0.37011045
0.019150514 0.017118854 0.37021044
0.021109141 0.01712556 0.37030765
0.023072673 0.017135035 0.37046042
0.025039498 0.017145406 0.37062708
0.027006993 0.017154958 0.37077293
0.028976897 0.017164795 0.37091869
0.030942008 0.01717096 0.37098122
0.032913655 0.017179897 0.37109926
0.034886528 0.017188789 0.37121034
0.036854811 0.017194636 0.37125197
0.038828593 0.017202614 0.3713353
0.040802967 0.017210206 0.37140477
0.043170165 0.016825557 0.37146032
0.045139737 0.016830292 0.37146032
0.047118563 0.016838107 0.37152281
0.049111433 0.016850363 0.37167907
0.051093061 0.016858103 0.37173113
0.053083841 0.016868401 0.37183526
0.055080336 0.016879899 0.37196025
0.057060309 0.016885931 0.37196025
0.059041876 0.016892193 0.37196025
0.061024871 0.016898656 0.37196025
0.06221544 0.016902642 0.37196025
0.019536182 0.018676095 0.37008545
0.021103574 0.019072989 0.37016878
0.023065543 0.019082576 0.3703042
0.025031039 0.019093456 0.37046042
0.027000923 0.01910615 0.37064791
0.028968809 0.019115938 0.37077287
0.030941172 0.019127492 0.37092912
0.032910597 0.019136097 0.37102285
0.034881689 0.019144896 0.37111658
0.036854748 0.019153988 0.37121034
0.038829744 0.01916323 0.37130409
0.040804479 0.01917167 0.37137699
0.043174997 0.018789165 0.37146032
0.045147341 0.018795326 0.37148118
0.04713526 0.018807389 0.37161312
0.049121026 0.018817855 0.3717103
0.051105503 0.01882722 0.37177971
0.053098742 0.018839298 0.37189779
0.055086512 0.018848665 0.37196022
0.057066724 0.018855177 0.37196025
0.059048515 0.018861936 0.37196022
0.060951807 0.018710976 0.37196025
0.062219556 0.018084884 0.37196025
0.021490891 0.020241598 0.37008545
0.023137316 0.020873519 0.37016043
0.025020964 0.021038769 0.37026596
0.026989065 0.021051927 0.37043962
0.028955499 0.021062154 0.37055767
0.030924954 0.021073436 0.37068954
0.032895491 0.021084163 0.37080759
0.034869291 0.021095939 0.37093952
0.036844134 0.021107161 0.37105757
0.038987797 0.021230191 0.37115678
0.040892661 0.021029608 0.37124157
0.043170046 0.021140741 0.37136304
0.045151342 0.021151925 0.37146032
0.047142167 0.021166427 0.37161309
0.049128164 0.021178059 0.3717103
0.051124368 0.02119313 0.37186301
0.053115372 0.021205217 0.37196025
0.054894473 0.020620394 0.37196025
0.059054147 0.020438166 0.37196025
0.025402144 0.022593375 0.37008545
0.026971303 0.022991134 0.37014794
0.028938629 0.023003943 0.37029377
0.03090726 0.023016432 0.37042919
0.032878231 0.023029111 0.37056458
0.034849353 0.023040812 0.37067917
0.036824819 0.023054026 0.37081456
0.039194409 0.023067974 0.37093952
0.041176029 0.023082402 0.37108535
0.043157902 0.023095882 0.37121034
0.045149688 0.023113525 0.37139782
0.047139462 0.023128824 0.37154365
0.04913456 0.023145679 0.3717103
0.051138688 0.02316542 0.37191859
0.0529899 0.023043206 0.37196025
0.029085781 0.024481498 0.37013546
0.03089156 0.024958709 0.37018958
0.032859977 0.024971224 0.37030768
0.034831662 0.024984969 0.37043962
0.036804393 0.02499805 0.37055767
0.039172724 0.025012977 0.37068263
0.041149374 0.025026254 0.37079373
0.043139715 0.025046371 0.37100199
0.045133155 0.025066778 0.37121034
0.047135483 0.025090303 0.37146032
0.049138676 0.025112689 0.37168947
0.05113627 0.025130667 0.37184915
0.053129707 0.025145702 0.37196025
0.054716475 0.025940485 0.37196025
0.057093754 0.025950354 0.37196025
0.059074793 0.02556438 0.37196025
0.06113727 0.025336709 0.37196025
0.062886208 0.025660396 0.37196025
0.033043187 0.026721075 0.37011671
0.035203256 0.026926359 0.37016881
0.037173614 0.026939388 0.37027293
0.039144024 0.026951248 0.37035623
0.041125324 0.026969451 0.37052292
0.043119472 0.02699405 0.37077287
0.045120854 0.027021242 0.37105411
0.047123935 0.02704723 0.3713145
0.049123928 0.027069725 0.37152284
0.051124711 0.027090974 0.3717103
0.053124182 0.027110286 0.37186652
0.055114511 0.027123859 0.37193942
0.057098895 0.027133934 0.37196025
0.05907191 0.027138174 0.37189779
0.061055955 0.027147323 0.37189776
0.063052297 0.02716144 0.37196025
0.064908028 0.027302226 0.37196025
0.035982262 0.028097838 0.37008545
0.037158221 0.028101284 0.37008545
0.039240379 0.028673101 0.37015685
0.041104067 0.028912172 0.3702729
0.04309307 0.02893577 0.37048823
0.045093674 0.028965035 0.37077287
0.047103997 0.028997967 0.37109923
0.049112309 0.029027401 0.37137699
0.051104091 0.029045241 0.37150198
0.053098295 0.029063361 0.371627
0.055089153 0.029078539 0.3717103
0.057069484 0.029087553 0.3717103
0.059049204 0.029095855 0.37169638
0.061031371 0.029104993 0.37168947
0.063031673 0.029122097 0.37177974
0.065039262 0.029141704 0.37189773
0.066924281 0.029381214 0.37194237
0.068901546 0.029694855 0.37196025
0.071029402 0.029970841 0.37196025
0.07302469 0.029982768 0.37196025
0.074222781 0.029990086 0.37196025
0.041481066 0.030467702 0.37008545
0.043075141 0.030881299 0.37027296
0.045078285 0.030914797 0.37058541
0.047083527 0.030946948 0.37087706
0.049081836 0.030972429 0.37108535
0.05107804 0.030994847 0.37125197
0.053069822 0.031013161 0.37136656
0.055042651 0.031019688 0.37133536
0.05702132 0.031029178 0.37133533
0.059008244 0.031042561 0.37137699
0.060998712 0.031057149 0.37142906
0.063005634 0.031078992 0.37156448
0.065011799 0.031099493 0.37167907
0.06701728 0.031118562 0.37177277
0.069008052 0.03113015 0.37177277
0.071020707 0.031150863 0.37187693
0.07301981 0.031164888 0.37189776
0.075021297 0.031179344 0.37191859
0.077029102 0.031195901 0.37196025
0.078632899 0.031602822 0.37196025
0.043293077 0.032723065 0.37015685
0.045060743 0.032861594 0.37037709
0.047061708 0.032893218 0.37064096
0.0490545 0.032917093 0.37081456
0.051042985 0.032936484 0.37093255
0.05302396 0.032950006 0.37098122
0.054996651 0.032957833 0.37096035
0.056976896 0.032969598 0.37098122
0.058965582 0.032985523 0.37104368
0.060959756 0.033003699 0.37112701
0.062977813 0.033033326 0.37133533
0.064984918 0.033055913 0.37146032
0.066997744 0.033080045 0.3715992
0.069000825 0.03309847 0.37166867
0.070993356 0.033111047 0.37166867
0.072987646 0.033123974 0.37166867
0.074986853 0.033138506 0.37168252
0.076995246 0.033156514 0.37173113
0.079021126 0.03318109 0.37184918
0.080841422 0.0332013 0.37192899
0.089087635 0.033267327 0.37196025
0.091100812 0.032965887 0.37196025
0.093121544 0.033300556 0.37196025
0.094333641 0.033310827 0.37196025
0.043543845 0.035031293 0.37011045
0.045052856 0.035206247 0.37023127
0.046931081 0.035007939 0.37042472
0.049033146 0.034864001 0.37058541
0.051013023 0.034879219 0.37064791
0.052985944 0.034888912 0.37064791
0.05496034 0.034899 0.37064791
0.056936063 0.03490945 0.37064791
0.058923405 0.03492621 0.3707104
0.060928103 0.034952082 0.37086663
0.062946893 0.034984376 0.37108538
0.064969465 0.035016995 0.37130409
0.066981249 0.035042182 0.37143946
0.068974808 0.035056945 0.37146032
0.070966594 0.035070132 0.37146032
0.072960161 0.035083685 0.37146032
0.074955814 0.035097662 0.37146032
0.076953322 0.035112008 0.37146032
0.078975283 0.035136558 0.37156448
0.081098594 0.034932781 0.37176028
0.083051912 0.034801278 0.37189081
0.084991351 0.03497953 0.37193528
0.087084137 0.03483865 0.37194633
0.089090921 0.034852628 0.37191859
0.091093168 0.034864463 0.37186301
0.093109407 0.03488126 0.37185609
0.09514603 0.034905069 0.37191856
0.097184055 0.035325423 0.37196025
0.098808914 0.035738774 0.37196025
0.10571884 0.035806641 0.37196025
0.10707504 0.035554528 0.37196025
0.10897844 0.035441171 0.37196025
0.11102211 0.035462603 0.37196025
0.11306287 0.035482507 0.37193942
0.11511934 0.035506852 0.37196025
0.1169699 0.035727419 0.37196025
0.043862585 0.036759079 0.37008545
0.04504757 0.037160501 0.37011671
0.047129303 0.036889102 0.37025729
0.049009364 0.036807343 0.37033543
0.050979763 0.036817115 0.3703354
0.052951407 0.036827251 0.37033543
0.054924518 0.036837801 0.37033546
0.056898966 0.036848724 0.37033543
0.05889494 0.036872577 0.37046045
0.060900453 0.036900874 0.37062708
0.062928423 0.036940735 0.3709048
0.064950995 0.036975365 0.37112701
0.066962816 0.037002228 0.37126586
0.068964891 0.037022427 0.3713353
0.070943125 0.037029393 0.37126589
0.072929233 0.037040066 0.37123117
0.074919857 0.037052564 0.37121031
0.076916449 0.037067574 0.37121034
0.078927144 0.037088547 0.37126586
0.080956958 0.037117612 0.37139782
0.082996763 0.037149914 0.37155756
0.085034035 0.037179835 0.37168947
0.087045893 0.03719769 0.37169641
0.089046828 0.037210409 0.3716478
0.090937972 0.036997575 0.37162104
0.093075313 0.036849279 0.37164783
0.095105946 0.036872197 0.37168947
0.097150318 0.036899578 0.37177277
0.098804034 0.036927648 0.37189776
0.10068824 0.037032042 0.37196025
0.10288594 0.037373148 0.37196025
0.10491683 0.036995236 0.37196025
0.10694563 0.037013415 0.37192902
0.10896518 0.037027981 0.37185609
0.1109931 0.037045024 0.371804
0.11303023 0.037064608 0.37177277
0.11507972 0.037087783 0.37177277
0.11675128 0.037116062 0.37186649
0.11867384 0.037227679 0.37196025
0.12049025 0.037569683 0.37196025
0.045444217 0.038732067 0.37008545
0.047023423 0.039135948 0.37011325
0.048993569 0.039147232 0.37012711
0.050963342 0.039157521 0.37012711
0.052855808 0.039011136 0.37013546
0.054907061 0.039081406 0.37013233
0.056883898 0.039193023 0.37014794
0.058777411 0.039117429 0.37025729
0.06088521 0.038856007 0.37046042
0.062907986 0.038894884 0.37071037
0.064929366 0.038930945 0.37092912
0.066943757 0.038960889 0.37108532
0.068943918 0.038981386 0.37114787
0.070926823 0.038991425 0.37110618
0.072903022 0.038997479 0.37102288
0.07488028 0.039004032 0.37093952
0.076867245 0.039015278 0.37089786
0.078882545 0.039040226 0.37098122
0.080905259 0.039067704 0.37108535
