# .PCD v0.7 - Point Cloud Data file format
VERSION 0.7
FIELDS x y z
SIZE 4 4 4
TYPE F F F
COUNT 1 1 1
WIDTH 1360
HEIGHT 1
VIEWPOINT 0 0 0 1 0 0 0
POINTS 1360
DATA ascii
-0.091056101 0.18290435 0.3565869
-0.089078248 0.18290678 0.35677439
-0.087131776 0.18297565 0.35708687
-0.085154995 0.18298255 0.35727432
-0.083174221 0.18298107 0.35744095
-0.080950662 0.18304813 0.3575868
-0.079042301 0.18287192 0.35773677
-0.07682953 0.18296333 0.35792008
-0.074826196 0.18290707 0.35796174
0.2532613 0.18314768 0.35742018
0.25446162 0.18279147 0.35621193
-0.23684919 0.18519051 0.35771179
-0.23493151 0.1850657 0.35725346
-0.23299547 0.1849205 0.35675356
-0.23091725 0.18504685 0.35621193
-0.094692081 0.18503578 0.35614944
-0.093127459 0.18507515 0.35637859
-0.091146894 0.18497652 0.3565869
-0.088947631 0.18479814 0.35691187
-0.087044872 0.18463828 0.35711184
-0.084826313 0.18471967 0.35729516
-0.082843877 0.18471819 0.35746181
-0.080971465 0.18488035 0.35756895
-0.078792453 0.18493772 0.35771179
-0.076892808 0.1847059 0.35792008
-0.074903242 0.18508522 0.35796174
-0.073695719 0.18503919 0.35796174
-0.054506753 0.18527645 0.35796174
-0.053311601 0.18524346 0.35796174
0.25141829 0.1855235 0.35771179
0.25271663 0.18480515 0.35673273
-0.23677488 0.18676333 0.35779512
-0.23475181 0.18694568 0.35736805
-0.23301998 0.18698984 0.35689938
-0.23133656 0.18706696 0.35649315
-0.22979914 0.18767852 0.35621193
-0.091222286 0.18602499 0.35671189
-0.088840134 0.18601899 0.35692021
-0.086869568 0.18604526 0.35714933
-0.084879756 0.18603057 0.35729516
-0.082895942 0.18602882 0.35746181
-0.080513701 0.18602332 0.3576493
-0.079316236 0.1860055 0.35771179
-0.076940805 0.18601577 0.35792008
0.25134408 0.18699053 0.35707122
0.25265855 0.18646693 0.35627443
-0.236757 0.18838409 0.35796174
-0.23522161 0.18901399 0.35771179
-0.23293096 0.18894461 0.35714933
-0.23055546 0.18919194 0.35662857
-0.22874372 0.18912911 0.35629526
-0.2265901 0.18954407 0.35608697
0.24969466 0.18929325 0.35774305
0.25103006 0.18900192 0.35685769
-0.23418227 0.19173752 0.35783678
-0.23322074 0.19084491 0.3575035
-0.23113713 0.19096191 0.35696188
-0.22898732 0.19099098 0.3565869
-0.22690752 0.19107166 0.35630569
-0.22550194 0.19178401 0.35621193
0.24739809 0.19167382 0.35796174
0.24898769 0.1911623 0.35739931
0.25064412 0.19077258 0.35637859
-0.23438865 0.19275509 0.35796174
-0.23290236 0.19302078 0.35758677
-0.23106107 0.19314894 0.3571806
-0.22917955 0.19281495 0.35679522
-0.22726722 0.19305971 0.35649318
-0.2256813 0.1931988 0.35621193
0.24553815 0.19325693 0.35783678
0.24701613 0.19327404 0.3571806
0.24881065 0.19252032 0.35680562
-0.23291533 0.19467849 0.35779512
-0.23076119 0.19513117 0.35733685
-0.22865206 0.19478978 0.35683689
-0.22661133 0.19532266 0.35652441
-0.22490646 0.19493501 0.35614944
0.24332225 0.1953467 0.35754514
0.2449715 0.1948293 0.3570154
0.24643373 0.1946665 0.35652441
-0.23296598 0.19679698 0.35796174
-0.23131704 0.196896 0.35761806
-0.22882275 0.1969517 0.35681188
-0.22687718 0.19724047 0.35655567
-0.22518933 0.19686559 0.35621193
0.24156217 0.19700216 0.35754514
0.24281518 0.19704108 0.3565869
0.24445391 0.19614437 0.35621196
-0.23272419 0.19865012 0.35796174
-0.2309735 0.19865981 0.35746181
-0.22966141 0.19825514 0.35696188
0.2409389 0.1989457 0.35715634
0.24235094 0.19913825 0.35614944
0.23959205 0.20009048 0.35796174
-0.25813419 -0.11894341 0.35996154
-0.25694263 -0.11711548 0.35991988
-0.25633901 -0.11476219 0.35933661
-0.25574341 -0.11445512 0.35996154
-0.25630182 -0.11271427 0.35808674
-0.25562418 -0.11296911 0.35924286
-0.25620469 -0.11072094 0.35867
-0.25561398 -0.11130384 0.35943034
-0.25642323 -0.10901392 0.35928661
-0.25705779 -0.10723005 0.35983655
-0.25637296 -0.098242164 0.35983655
-0.25496617 -0.098183975 0.35996154
-0.25637847 -0.096843436 0.35927409
-0.25504345 -0.096792974 0.35978654
-0.25338447 -0.096816808 0.35996154
-0.25676361 -0.095020927 0.3585867
-0.25498703 -0.095136672 0.35958657
-0.25326622 -0.095117971 0.35996154
-0.25682434 -0.092977427 0.35887834
-0.25488043 -0.093030073 0.35964215
-0.253122 -0.092997931 0.35996154
-0.25694048 -0.090952791 0.35924286
-0.255328 -0.090973765 0.35977405
-0.25397158 -0.090936989 0.35996154
-0.25700092 -0.088906892 0.3595241
-0.25524816 -0.088878892 0.35985735
-0.25693077 -0.086815923 0.35961783
-0.2551423 -0.086776271 0.35989904
-0.25367334 -0.086289749 0.35996154
-0.25657827 -0.085045747 0.35927409
-0.25490388 -0.085044198 0.35971156
-0.25307938 -0.084992185 0.35993028
-0.25159636 -0.084501885 0.35996154
-0.25652397 -0.083241269 0.35864919
-0.25497526 -0.08286801 0.35929498
-0.25286767 -0.083272472 0.35977405
-0.2510078 -0.083208717 0.35993028
-0.24953282 -0.08272212 0.35996154
-0.25632226 -0.081117176 0.35854504
-0.25510812 -0.08071661 0.35896164
-0.25304225 -0.081134029 0.35949731
-0.2509366 -0.080951594 0.35971156
-0.24901848 -0.080853134 0.35993654
-0.24743569 -0.080113612 0.35996154
-0.25520521 -0.079104401 0.35881168
-0.25325698 -0.079012036 0.35927412
-0.25095984 -0.078944288 0.35950324
-0.24872214 -0.078894272 0.35980532
-0.24685857 -0.078830011 0.35993028
-0.24491537 -0.078329206 0.35996154
-0.25517917 -0.077040441 0.35883665
-0.25319853 -0.076936968 0.35935745
-0.25130549 -0.076867431 0.35946158
-0.24904031 -0.07722085 0.35969076
-0.2467044 -0.077140108 0.35983655
-0.24482782 -0.077072002 0.35993031
-0.24339831 -0.077013224 0.35996154
-0.25614771 -0.074477971 0.35883665
-0.25486511 -0.074880011 0.35908663
-0.25302592 -0.074828953 0.35927412
-0.25117123 -0.074772552 0.35943037
-0.24916694 -0.075251587 0.35962227
-0.24692228 -0.074958369 0.3597897
-0.24465637 -0.074970618 0.35983655
-0.24291441 -0.075082667 0.35996154
-0.25608021 -0.073224172 0.35883665
-0.2547313 -0.073195823 0.35902414
-0.25293753 -0.073158935 0.35927412
-0.25106212 -0.073097676 0.35939911
-0.24919361 -0.07303752 0.3595241
-0.24737494 -0.072991155 0.35971156
-0.2450356 -0.072912566 0.35983655
-0.2431881 -0.072855845 0.35996154
-0.25496975 -0.071325049 0.35880095
-0.25295326 -0.070941113 0.35915807
-0.25094181 -0.071010806 0.35937825
-0.24907482 -0.070952632 0.35950327
-0.2472719 -0.070911974 0.35971156
-0.24508144 -0.070950836 0.35986781
-0.25443321 -0.068890005 0.35821173
-0.2530393 -0.069000162 0.35873669
-0.25099498 -0.068822607 0.35918665
-0.24894476 -0.068866253 0.35946161
-0.24717206 -0.068835236 0.35971156
-0.24509206 -0.069032714 0.35991153
-0.24395499 -0.068747282 0.35996154
-0.25426286 -0.06720458 0.35808674
-0.25303274 -0.067209028 0.35843045
-0.25112653 -0.067047358 0.3590152
-0.24890965 -0.067217484 0.3595241
-0.24713749 -0.067187376 0.35977405
-0.2453068 -0.067140698 0.35993028
-0.24387938 -0.067090347 0.35996154
-0.25419369 -0.065137647 0.3581284
-0.25313339 -0.065185606 0.35871169
-0.25097474 -0.065089449 0.35930538
-0.24888687 -0.065162554 0.35962823
-0.24704392 -0.065114893 0.35977408
-0.24523576 -0.065075658 0.35996154
-0.25477472 -0.063027412 0.35862836
-0.25294492 -0.063192487 0.35927412
-0.25067252 -0.063144594 0.35952407
-0.24880961 -0.063094124 0.35964906
-0.24699633 -0.063055471 0.35983655
-0.24514648 -0.06300693 0.35996154
-0.24320126 -0.062524378 0.35996154
-0.24145235 -0.062736996 0.35996154
-0.25630155 -0.061146338 0.3585867
-0.25504538 -0.061144751 0.35889915
-0.2530252 -0.061237521 0.35933661
-0.25078136 -0.060960412 0.35951513
-0.24876481 -0.061034903 0.35971156
-0.24693799 -0.060994413 0.35987821
-0.24506067 -0.060940597 0.35996154
-0.24313392 -0.060873631 0.35996154
-0.24123117 -0.061219588 0.35996154
-0.2397964 -0.061170235 0.35996154
-0.25605071 -0.05944581 0.35833672
-0.25509706 -0.05896455 0.35868669
-0.25316852 -0.059043668 0.35914916
-0.25094175 -0.059009731 0.35946164
-0.24867979 -0.05896676 0.35971156
-0.24676123 -0.05890578 0.35974279
-0.2448715 -0.058850762 0.35980529
-0.24303114 -0.058806829 0.35993031
-0.24115026 -0.059160125 0.35996154
-0.23971629 -0.059112664 0.35996154
-0.25513098 -0.056966059 0.35857281
-0.25308433 -0.056974277 0.35914913
-0.25127396 -0.056941751 0.35935745
-0.24910174 -0.056999445 0.35955533
-0.24696787 -0.056844492 0.3596907
-0.24474402 -0.057186652 0.35971156
-0.24288385 -0.057139285 0.35980532
-0.24105129 -0.057097659 0.35993028
-0.2396391 -0.057056993 0.35996154
-0.25494012 -0.054875147 0.35842004
-0.25289321 -0.054883022 0.35899287
-0.25111395 -0.054858234 0.35924286
-0.24923168 -0.05481049 0.35933661
-0.24696182 -0.055040445 0.3595449
-0.24484529 -0.055010941 0.35967585
-0.24278705 -0.055077404 0.35977402
-0.24096966 -0.055040833 0.35991988
-0.23956521 -0.055003438 0.35996154
-0.25496385 -0.053288497 0.3582617
-0.25297627 -0.05312727 0.35878667
-0.25096515 -0.053188931 0.3591179
-0.24908446 -0.053142831 0.35921162
-0.24723217 -0.053102247 0.35933661
-0.24499021 -0.05306631 0.3595866
-0.24267228 -0.053013101 0.35971156
-0.24088395 -0.05298429 0.35989904
-0.25466752 -0.051542543 0.35821173
-0.25300828 -0.051134922 0.35865611
-0.25078234 -0.051105727 0.35896161
-0.24893956 -0.051069152 0.35910746
-0.24711747 -0.051036268 0.35927412
-0.2449197 -0.051011063 0.3595866
-0.242631 -0.050966159 0.35975322
-0.24095829 -0.051108457 0.35996154
-0.25319988 -0.049045123 0.35833672
-0.25102398 -0.049026877 0.35871169
-0.24879055 -0.048996843 0.35899287
-0.24702737 -0.048977029 0.35924286
-0.24529065 -0.048962105 0.3595241
-0.24307226 -0.048933417 0.35979488
-0.24126926 -0.048904426 0.35996154
-0.25440878 -0.046584077 0.35808674
-0.25302866 -0.046968911 0.35819089
-0.25102597 -0.047056217 0.35840815
-0.24897645 -0.046829253 0.35883665
-0.24694069 -0.046919882 0.35921165
-0.24522626 -0.046910018 0.3595241
-0.24303699 -0.046888396 0.35983655
-0.24123129 -0.047674794 0.35996154
-0.25474679 -0.045095533 0.35817006
-0.25300017 -0.044920757 0.35824299
-0.25113836 -0.044886038 0.35836795
-0.24900872 -0.044877511 0.35879502
-0.24692132 -0.044876322 0.35927415
-0.24520735 -0.044867195 0.3595866
-0.24320436 -0.044931956 0.35988653
-0.25431859 -0.043706529 0.35808674
-0.25285897 -0.04303164 0.35826173
-0.25117236 -0.042850748 0.35850337
-0.24902603 -0.042840108 0.35890612
-0.24687673 -0.04282866 0.35929498
-0.24516349 -0.042820286 0.35960743
-0.24345176 -0.043219607 0.35989904
-0.25290194 -0.040819079 0.35827422
-0.25126055 -0.040823754 0.35871169
-0.2490945 -0.04081089 0.35908666
-0.24691391 -0.040795177 0.35943037
-0.24517938 -0.040783942 0.35971156
-0.24352244 -0.041342206 0.35993654
-0.253187 -0.038971175 0.3586117
-0.25090557 -0.039199937 0.35896167
-0.24869679 -0.039181147 0.35927412
-0.2469359 -0.039166737 0.35952407
-0.24518013 -0.039152849 0.35977405
-0.2438665 -0.039142758 0.35996154
-0.25308266 -0.0370184 0.35881168
-0.25096077 -0.037165467 0.35911444
-0.2487181 -0.037143067 0.35937831
-0.24695735 -0.037129749 0.35962823
-0.24513078 -0.037106235 0.35977402
-0.2435734 -0.03688781 0.35996154
-0.25319678 -0.035141781 0.35889915
-0.25098005 -0.035125092 0.35921159
-0.2487281 -0.035103008 0.35946161
-0.24692453 -0.03508468 0.35964906
-0.24508426 -0.035060741 0.35977405
-0.24327156 -0.035040379 0.35993028
-0.24184918 -0.034608651 0.35996154
-0.25309202 -0.033083525 0.35881582
-0.25093493 -0.033075828 0.35921159
-0.24868369 -0.033055503 0.35946158
-0.24688073 -0.033038624 0.35964906
-0.24499862 -0.033010732 0.35971156
-0.24312341 -0.032983448 0.35977402
-0.24119927 -0.032948989 0.35975325
-0.23902939 -0.033024356 0.3598834
-0.23686206 -0.032616433 0.35989904
-0.23482697 -0.032314006 0.35991988
-0.23281386 -0.032014526 0.35996154
-0.25284332 -0.031009 0.3585242
-0.25126922 -0.031022189 0.3590554
-0.24901097 -0.031002661 0.35929498
-0.24673267 -0.030980134 0.35949284
-0.24491575 -0.030962477 0.35964906
-0.24293604 -0.030923674 0.35955533
-0.24096459 -0.030885324 0.35946161
-0.23910567 -0.030860942 0.35952407
-0.23727395 -0.03083962 0.35961783
-0.23513491 -0.030891199 0.35966158
-0.23292661 -0.030701185 0.35973656
-0.23095456 -0.031005431 0.35986155
-0.22918296 -0.030605583 0.35991988
-0.22765583 -0.030316804 0.35996154
-0.25224349 -0.028946549 0.35842004
-0.25103357 -0.02895271 0.35877419
-0.24911906 -0.029063186 0.35910448
-0.24692602 -0.028825272 0.35930538
-0.24476524 -0.028907502 0.35948244
-0.24283607 -0.028877519 0.35946158
-0.24091466 -0.028848045 0.35944077
-0.23912616 -0.028986162 0.35946161
-0.23712204 -0.029198766 0.35943037
-0.23521607 -0.029169146 0.35939911
-0.23311493 -0.029226493 0.35948664
-0.23091635 -0.02903915 0.35956159
-0.22889103 -0.02910508 0.35974279
-0.22715314 -0.029094821 0.35993028
-0.25206065 -0.026886433 0.35821173
-0.25084466 -0.026891669 0.35855544
-0.24910296 -0.026885644 0.35883665
-0.24734466 -0.026877601 0.35908663
-0.24506913 -0.026858671 0.35927412
-0.24273914 -0.026833329 0.35936785
-0.24081172 -0.026805513 0.35933661
-0.23877208 -0.027017349 0.3592616
-0.2369314 -0.027150596 0.35919079
-0.23504762 -0.027125798 0.35919079
-0.233225 -0.027107699 0.35927412
-0.23099133 -0.027089676 0.3594338
-0.22877432 -0.027073247 0.35960746
-0.22702444 -0.027062453 0.35977402
-0.22575426 -0.02705933 0.35996154
-0.25224599 -0.024640864 0.35818046
-0.25068834 -0.024837069 0.35837838
-0.24901307 -0.024838438 0.35875332
-0.24727006 -0.024832869 0.35902414
-0.24511693 -0.024919298 0.35921165
-0.24260893 -0.025193593 0.35921162
-0.24070366 -0.02517006 0.35921162
-0.23878509 -0.02514473 0.35918039
-0.23683281 -0.0251153 0.35908663
-0.23495005 -0.025092805 0.35908663
-0.23313515 -0.025077222 0.35918036
-0.23107168 -0.025142089 0.35931164
-0.22894724 -0.024966922 0.35948661
-0.22695749 -0.025039122 0.35971156
-0.22524573 -0.025033612 0.35993031
-0.25258982 -0.022940846 0.3581284
-0.2509197 -0.022715423 0.35833675
-0.24902013 -0.022801427 0.35880542
-0.24724138 -0.022793584 0.35902411
-0.24482061 -0.022950599 0.3591938
-0.24258089 -0.023159238 0.35921165
-0.24067605 -0.023138091 0.35921165
-0.2386955 -0.023109213 0.35908663
-0.23680599 -0.023088701 0.35908663
-0.23491 -0.023067156 0.3590658
-0.23312946 -0.023056613 0.35921165
-0.23088363 -0.02304103 0.3593505
-0.22866827 -0.023028145 0.3595241
-0.22693278 -0.023021242 0.35971156
-0.22520177 -0.023014599 0.35989904
-0.22385323 -0.022601729 0.35996154
-0.25290549 -0.021176439 0.35814923
-0.25112283 -0.021169446 0.35837838
-0.24904256 -0.0211732 0.35886791
-0.24730681 -0.021170029 0.35914913
-0.24540515 -0.021152409 0.35918039
-0.24303333 -0.021130264 0.35921165
-0.24065119 -0.02110674 0.35921162
-0.23867103 -0.021080917 0.35908663
-0.2367819 -0.021062719 0.35908663
-0.23489992 -0.021044794 0.35908663
-0.23310606 -0.021034464 0.35921162
-0.23110338 -0.021108408 0.3594366
-0.22893167 -0.020932222 0.35953659
-0.22691056 -0.021003945 0.35971156
-0.22514087 -0.020994738 0.35983655
-0.22337632 -0.020985771 0.35996154
-0.2524831 -0.019137267 0.35827422
-0.25077423 -0.019137187 0.35860753
-0.24905552 -0.019136284 0.35891998
-0.24724095 -0.019127904 0.35908663
-0.24538966 -0.019116402 0.35919082
-0.24301118 -0.019096578 0.35921165
-0.2405737 -0.019071646 0.35912833
-0.23864968 -0.019053247 0.35908663
-0.23676085 -0.019037353 0.35908663
-0.2348792 -0.019021707 0.35908663
-0.2331261 -0.019016229 0.35927412
-0.23104772 -0.01890884 0.35949284
-0.22887734 -0.019113099 0.35960442
-0.2268912 -0.018987244 0.35971156
-0.22512178 -0.018979458 0.35983655
-0.22335754 -0.018971888 0.35996154
-0.22197619 -0.018558977 0.35996154
-0.25294897 -0.017100267 0.35827422
-0.25084829 -0.01710345 0.35874292
-0.24908578 -0.017100295 0.3589929
-0.24726385 -0.017092932 0.35914916
-0.24538416 -0.0170813 0.35921162
-0.24299185 -0.017063377 0.35921165
-0.24091774 -0.017037403 0.35896164
-0.23907679 -0.017027518 0.35904494
-0.23674248 -0.017012462 0.35908663
-0.23490189 -0.01700205 0.35914913
-0.23310831 -0.016994802 0.35927412
-0.23136063 -0.01699071 0.35946161
-0.2290868 -0.016978743 0.35954496
-0.22687434 -0.016970996 0.35971156
-0.22508559 -0.016963191 0.35980532
-0.22334118 -0.016958453 0.35996154
-0.22150534 -0.016946573 0.35996154
-0.25303429 -0.015065435 0.35842004
-0.25085285 -0.015064318 0.35877419
-0.24909039 -0.015062244 0.35902414
-0.24727583 -0.015056915 0.35919079
-0.24518754 -0.01516208 0.35924736
-0.24285556 -0.01492823 0.35921165
-0.24055284 -0.015013321 0.35914913
-0.23865698 -0.015001841 0.35914913
-0.23672716 -0.014988036 0.35908663
-0.23487322 -0.014978722 0.35912833
-0.23309346 -0.014973833 0.35927415
-0.23131917 -0.014969211 0.35941994
-0.22904594 -0.014959456 0.35950324
-0.22684716 -0.014954372 0.35969076
-0.22505219 -0.014947642 0.35977402
-0.22328876 -0.014942854 0.35989904
-0.22114816 -0.014833354 0.35996154
-0.253005 -0.013023251 0.35839924
-0.25083852 -0.013024021 0.35877419
-0.24907625 -0.013023025 0.35902414
-0.24719027 -0.013015398 0.35908663
-0.245354 -0.0130102 0.35921162
-0.2429623 -0.012998283 0.35921165
-0.24058156 -0.012986607 0.35921162
-0.23868559 -0.012977453 0.35921162
-0.2367145 -0.012963949 0.35908663
-0.23483357 -0.012955113 0.35908663
-0.23306099 -0.0129521 0.35924286
-0.23129369 -0.01294916 0.35939908
-0.22902091 -0.012941729 0.35948244
-0.22678961 -0.012936367 0.35961783
-0.22500184 -0.012931672 0.35971156
-0.22321945 -0.012927181 0.35980532
-0.22101058 -0.012922364 0.35994068
-0.21889077 -0.012780444 0.35996154
-0.25282836 -0.011081951 0.35833672
-0.25074014 -0.01098023 0.35864922
-0.24903651 -0.010982958 0.35898244
-0.24720824 -0.01097994 0.35912833
-0.24534355 -0.010975146 0.35921165
-0.2432252 -0.011083275 0.35921165
-0.24091731 -0.010856821 0.35919601
-0.2386343 -0.01094886 0.35914913
-0.23666371 -0.010938353 0.35902414
-0.23481047 -0.010933005 0.35906577
-0.23303147 -0.010930949 0.35921165
-0.23123099 -0.010927836 0.35931578
-0.2289899 -0.010924094 0.35944769
-0.22673492 -0.010919493 0.3595449
-0.22496717 -0.010917366 0.35966992
-0.22316583 -0.010913449 0.35973239
-0.22094697 -0.010909911 0.35985047
-0.21873145 -0.010906299 0.35996154
-0.21736579 -0.010902208 0.35996154
-0.25101289 -0.0089352829 0.35835755
-0.24892738 -0.0089407936 0.35883665
-0.24710728 -0.0089397551 0.35899287
-0.24525057 -0.0089371921 0.35908663
-0.24333693 -0.008932434 0.35908663
-0.24140988 -0.0089270379 0.35905537
-0.23897587 -0.0089190025 0.35896161
-0.23661554 -0.008913476 0.35896164
-0.23473558 -0.0089091677 0.35896164
-0.23298417 -0.0089096036 0.35914913
-0.23115744 -0.0089070303 0.35921162
-0.22895247 -0.0089066764 0.35939908
-0.22671551 -0.0089048538 0.3595241
-0.22492851 -0.0089033935 0.35961783
-0.22314696 -0.0089019462 0.35971156
-0.22093265 -0.0089004934 0.35983655
-0.21872577 -0.0088991579 0.35996154
-0.21690595 -0.0088957101 0.35996154
-0.25086123 -0.0067945588 0.35832107
-0.24887949 -0.0069021485 0.35877419
-0.24708129 -0.0069032479 0.35896161
-0.24520339 -0.0069020162 0.35902414
-0.24329032 -0.0068997494 0.35902414
-0.24134265 -0.0068961657 0.35896161
-0.23906934 -0.0069942311 0.35893038
-0.23678984 -0.0067746858 0.35892588
-0.23473175 -0.0068886951 0.35896161
-0.23292644 -0.0068887542 0.35906577
-0.23114038 -0.0068892282 0.35919082
-0.22901517 -0.0069902283 0.359321
-0.22685958 -0.006774575 0.35944372
-0.22489262 -0.0068901628 0.35956573
-0.22314371 -0.0068912539 0.35971156
-0.22089532 -0.0068906285 0.359781
-0.21868466 -0.0068909503 0.35989904
-0.21690302 -0.0068906825 0.35996154
-0.25284594 -0.0048577767 0.35821173
-0.25103569 -0.0048601502 0.35839918
-0.24879104 -0.0048634382 0.35864919
-0.24701506 -0.0048663905 0.35886788
-0.24511653 -0.0048668417 0.35889915
-0.24320409 -0.0048668748 0.35889915
-0.24125715 -0.0048660305 0.35883665
-0.2393392 -0.0048657544 0.35880542
-0.23701291 -0.0048666452 0.35885748
-0.23473053 -0.0048682834 0.35896164
-0.23289821 -0.0048693721 0.35902414
-0.23111239 -0.0048713428 0.35914916
-0.22931221 -0.0048729591 0.35924286
-0.22710805 -0.0048757591 0.35941994
-0.22486562 -0.004877652 0.35952407
-0.22312346 -0.0048802262 0.35968032
-0.22087748 -0.004881748 0.35975322
-0.21864608 -0.0048834868 0.35983655
-0.21690236 -0.0048857024 0.35996154
-0.21554136 -0.004886108 0.35996154
-0.25275856 -0.0032250937 0.35808674
-0.25108087 -0.0028226697 0.35846174
-0.24880709 -0.0028272525 0.35867003
-0.24692349 -0.0028301973 0.35873249
-0.24499011 -0.0028324479 0.35871169
-0.24307871 -0.0028348726 0.35871169
-0.24117483 -0.0028373059 0.35871169
-0.23927836 -0.0028397471 0.35871169
-0.23698251 -0.0028435488 0.35880888
-0.23473229 -0.002847865 0.35896161
-0.23290001 -0.0028508278 0.35902414
-0.23111422 -0.0028542932 0.35914913
-0.22929414 -0.0028572688 0.35921165
-0.22708358 -0.0028616996 0.35937825
-0.2248285 -0.002865474 0.35946158
-0.22310595 -0.0028694619 0.35964906
-0.22131109 -0.0028724566 0.35971156
-0.2190786 -0.002876245 0.35979491
-0.21687919 -0.0028803695 0.35991991
-0.21554331 -0.0028825784 0.35996154
-0.2510561 -0.00078420684 0.35842004
-0.24879703 -0.00079076423 0.35864919
-0.24695654 -0.00079589925 0.35877419
-0.2450799 -0.00080087612 0.35883665
-0.24316782 -0.00080569234 0.35883665
-0.24126324 -0.00081048609 0.35883665
-0.23936613 -0.0008152572 0.35883665
-0.23700531 -0.0008211878 0.35883665
-0.2347367 -0.00082737231 0.35896164
-0.23290439 -0.00083220896 0.35902414
-0.2311186 -0.00083716883 0.35914913
-0.2292985 -0.00084196113 0.35921162
-0.2271011 -0.00084815378 0.35939911
-0.22483285 -0.00085406582 0.35946161
-0.2230716 -0.00085892866 0.3595866
-0.22131537 -0.00086376944 0.35971156
-0.21908288 -0.00086961221 0.35979486
-0.2169086 -0.00087562238 0.35996154
-0.21554761 -0.00087896781 0.35996154
-0.25100365 0.00084629509 0.35833672
-0.24875955 0.00083822175 0.3585867
-0.24696237 0.00083190837 0.35877419
-0.245107 0.00082531373 0.35886788
-0.24317357 0.00081854855 0.35883665
-0.24126898 0.00081186718 0.35883665
-0.23937182 0.00080523326 0.35883665
-0.23701097 0.00079700962 0.35883665
-0.23463318 0.001031146 0.35893664
-0.23291169 0.0011865722 0.35902414
-0.23112588 0.0011801185 0.35914913
-0.22930573 0.0011735089 0.35921165
-0.22712146 0.0011657421 0.35941994
-0.22483997 0.0011575063 0.35946158
-0.22306572 0.001151157 0.35956573
-0.22130954 0.001144969 0.35969076
-0.21909826 0.0011371983 0.3598088
-0.2169155 0.0011296232 0.35996154
-0.21555603 0.0015255793 0.35996154
-0.25097498 0.0028838278 0.35828117
-0.24879861 0.0028750256 0.35862836
-0.24700117 0.0028672984 0.35881582
-0.24518108 0.0028591675 0.35896161
-0.24324006 0.0028497616 0.35891998
-0.24127887 0.0028400116 0.35883665
-0.23938161 0.002831049 0.35883665
-0.23702066 0.0028199586 0.35883665
-0.23479743 0.0029714385 0.35888663
-0.2329216 0.0032055622 0.35902411
-0.23113573 0.0031976148 0.35914913
-0.22889143 0.0031875363 0.35927415
-0.22669482 0.0031780745 0.35946161
-0.22484951 0.0031692868 0.35946161
-0.22302994 0.0031608182 0.35949287
-0.22127409 0.003153285 0.35961783
-0.21906112 0.0031436218 0.35973239
-0.21686816 0.0031342255 0.35986781
-0.21526247 0.0032609485 0.35996154
-0.25049868 0.0049188109 0.35827422
-0.24882618 0.0049121194 0.35864919
-0.24705002 0.0049033454 0.35886788
-0.24519396 0.0048930366 0.35896164
-0.24325983 0.0048810621 0.35893041
-0.24127045 0.0048679616 0.35880542
-0.23939411 0.004857129 0.35883665
-0.23699176 0.0048422576 0.35877419
-0.23468229 0.0048292996 0.35883665
-0.23291135 0.0048205154 0.3589929
-0.23112552 0.0048113735 0.3591179
-0.22888798 0.0047998442 0.35925329
-0.22664155 0.0051907171 0.35935745
-0.22483575 0.0051806872 0.35941991
-0.2230228 0.0051706 0.35946158
-0.22122853 0.0051607299 0.3595241
-0.21902658 0.0051494283 0.35965601
-0.21679838 0.0051375222 0.35973239
-0.21507271 0.0051291925 0.35987821
-0.21376827 0.0055233412 0.35996154
-0.25281358 0.0073789586 0.35808674
-0.25107276 0.0069622495 0.35837838
-0.24887152 0.0069503342 0.35869086
-0.24700172 0.0069376207 0.35877419
-0.24509619 0.0069239791 0.35879502
-0.24312751 0.006908474 0.35871169
-0.24115317 0.0068926662 0.35860753
-0.23924293 0.0068786065 0.3585867
-0.23716311 0.0067485315 0.35860458
-0.23492765 0.0069500324 0.35864919
-0.23283851 0.0068372972 0.35885748
-0.23105329 0.0068267123 0.35898247
-0.22928679 0.0068165064 0.35912833
-0.22715773 0.0070332997 0.35921165
-0.22475931 0.0071899914 0.35927415
-0.22295988 0.0071784621 0.35933661
-0.22118528 0.0071675805 0.35943037
-0.21894783 0.0071533136 0.35950327
-0.21674344 0.0071400832 0.35961783
-0.21500576 0.0071302941 0.35974282
-0.21325415 0.0071199723 0.35983655
-0.21197876 0.0075136833 0.35996154
-0.25251961 0.0090131974 0.35833672
-0.25075322 0.0090024956 0.3585867
-0.24881862 0.0089856116 0.3585867
-0.24689166 0.0089689763 0.3585867
-0.24503678 0.0089548919 0.35868046
-0.24304035 0.0089354888 0.35855547
-0.24098957 0.0089138998 0.35833672
-0.23905274 0.0088964151 0.35827422
-0.23724802 0.0088837538 0.35839921
-0.23493916 0.0088658575 0.35846171
-0.23274134 0.0088520441 0.35868046
-0.23097685 0.0088406559 0.35883665
-0.22919771 0.0088287573 0.35896164
-0.22700126 0.0088147568 0.35914913
-0.22462854 0.0090378793 0.35918665
-0.22291255 0.0091858739 0.35923246
-0.22110631 0.0091721332 0.35927415
-0.21902375 0.0090581495 0.3594147
-0.21685086 0.0092563499 0.35944372
-0.21490401 0.0091285473 0.3595449
-0.21314709 0.0091165947 0.35962823
-0.21113239 0.0092053069 0.35983655
-0.2093035 0.0098935198 0.35996154
-0.25254264 0.011054748 0.35833672
-0.25077605 0.011042948 0.3585867
-0.24873994 0.01101921 0.35844088
-0.24678494 0.010998798 0.35839918
-0.24483828 0.010978504 0.35835755
-0.2428457 0.010550561 0.35824299
-0.24087581 0.010124726 0.35814923
-0.2389861 0.010512066 0.35814923
-0.23701592 0.010736476 0.35816175
-0.23508607 0.010766609 0.35824746
-0.2329309 0.010966219 0.35839921
-0.23086314 0.010851555 0.35862836
-0.22909807 0.010838707 0.35877419
-0.22713149 0.010708955 0.35890809
-0.22508237 0.011037399 0.35899734
-0.22282241 0.011190374 0.35905537
-0.22104895 0.011176459 0.35914916
-0.21926162 0.011161854 0.35921162
-0.21700083 0.011141971 0.35923246
-0.21477965 0.011123975 0.35930538
-0.21304841 0.011111854 0.35943037
-0.21091533 0.011098221 0.35962823
-0.20879425 0.011085132 0.35983655
-0.20708188 0.011473026 0.35996154
-0.25247502 0.012683939 0.35821173
-0.25091884 0.013159685 0.35833672
-0.24875814 0.01305643 0.35843045
-0.2467456 0.013030341 0.35830548
-0.24519911 0.013008626 0.35814923
-0.23473221 0.012489439 0.35808674
-0.23272765 0.012793374 0.35816175
-0.23069826 0.012857788 0.35833672
-0.22894119 0.012844061 0.35849297
-0.22720894 0.012831615 0.35868046
-0.22498833 0.012812776 0.35881582
-0.22273497 0.013193388 0.35887834
-0.22095574 0.013177655 0.35896161
-0.21916915 0.013161317 0.35902414
-0.2169596 0.013142142 0.35912833
-0.21473254 0.013121784 0.35919082
-0.21297698 0.013106865 0.35927415
-0.21109386 0.012979953 0.35946158
-0.20902489 0.013178673 0.35961783
-0.20701446 0.013065417 0.35981572
-0.20546889 0.013587334 0.35996154
-0.2505126 0.014291414 0.35814923
-0.24843729 0.014538511 0.35817006
-0.24663888 0.014650723 0.35811797
-0.24517277 0.014225574 0.35808674
-0.23074162 0.014597844 0.3581284
-0.22884028 0.014850126 0.35829505
-0.22709559 0.014835786 0.35846171
-0.22500278 0.014716794 0.35861796
-0.22291723 0.015278186 0.35868669
-0.22088416 0.015178751 0.35880542
-0.21913625 0.015163388 0.35893041
-0.21707836 0.015062218 0.35898668
-0.21495137 0.015201452 0.35906163
-0.21294478 0.015103468 0.35918039
-0.21121882 0.015089102 0.35930538
-0.20909207 0.015073235 0.35950327
-0.20697707 0.01505807 0.35971156
-0.20504256 0.015124565 0.35991153
-0.22860546 0.016720088 0.3581284
-0.22700447 0.016839776 0.35827422
-0.22527842 0.016825419 0.35846171
-0.22293082 0.016973171 0.35858673
-0.22084098 0.017180786 0.35869086
-0.21908055 0.0171631 0.35879502
-0.21701485 0.017243916 0.358946
-0.21484841 0.017004263 0.35897949
-0.21292748 0.01710069 0.35910749
-0.21120162 0.017085111 0.35923246
-0.20906888 0.017067514 0.35941994
-0.20696598 0.017052183 0.35964906
-0.20494652 0.016936012 0.35982093
-0.20312917 0.017338695 0.35993654
-0.22829016 0.01805619 0.35808674
-0.22696905 0.018846733 0.35817006
-0.22522999 0.018830171 0.35833672
-0.22312757 0.018907595 0.35846168
-0.22082575 0.019184511 0.35861793
-0.21905906 0.019164866 0.35871169
-0.21687537 0.019142171 0.35885748
-0.21467398 0.019117702 0.35896164
-0.21290621 0.019097317 0.35902411
-0.21119887 0.019082151 0.35918039
-0.20907211 0.019063786 0.35937825
-0.20699307 0.019049615 0.35964906
-0.20528148 0.019033711 0.35977405
-0.20314223 0.019013656 0.35991988
-0.20109998 0.019123139 0.35996154
-0.19919015 0.019365171 0.35996154
-0.22648068 0.020445297 0.35808674
-0.22516444 0.020832637 0.35818049
-0.22285993 0.020980243 0.35837242
-0.22077477 0.021184614 0.35848251
-0.21902741 0.021165228 0.35860753
-0.21728502 0.021146238 0.35873255
-0.21509923 0.021121396 0.35886443
-0.21289998 0.021095082 0.35896161
-0.21121083 0.02108074 0.35914913
-0.20908585 0.021061251 0.3593505
-0.20699863 0.021045392 0.35960743
-0.20497853 0.021126147 0.35977405
-0.20287876 0.020888016 0.3598544
-0.20095587 0.020979673 0.35991988
-0.19918974 0.020956323 0.35991988
-0.19712348 0.021030949 0.35996154
-0.19497247 0.021433711 0.35996154
-0.19351791 0.021679612 0.35996154
-0.22497784 0.022299441 0.35808674
-0.2230393 0.022912053 0.35821173
-0.22073898 0.023185421 0.35836795
-0.21899185 0.023164758 0.35849297
-0.2172496 0.023144418 0.35861796
-0.21506612 0.023118153 0.35875335
-0.21291438 0.023094961 0.35893041
-0.21120669 0.023077704 0.35908663
-0.20910989 0.023060197 0.35933661
-0.20698236 0.023039047 0.35952407
-0.20528856 0.023022838 0.35968032
-0.20310779 0.022995213 0.35975322
-0.20090485 0.022964701 0.35977405
-0.19913906 0.022939604 0.35977405
-0.19698477 0.022914028 0.35985735
-0.19484815 0.02289018 0.35996154
-0.19309889 0.022866126 0.35996154
-0.19109449 0.022918213 0.35996154
-0.22260003 0.024674995 0.3581284
-0.22086503 0.025185078 0.35819387
-0.21893346 0.025161011 0.35833672
-0.21720417 0.025140876 0.35848257
-0.21504392 0.025115557 0.35865614
-0.21288198 0.025089681 0.35881582
-0.21115611 0.025069276 0.35894081
-0.2090476 0.025049208 0.35916996
-0.20694458 0.02502971 0.35939908
-0.20523314 0.0250104 0.3595241
-0.20304699 0.024980126 0.3595866
-0.20085616 0.024949072 0.35962823
-0.19910216 0.024923669 0.35964909
-0.19693676 0.024894943 0.35971159
-0.19477801 0.02486662 0.35977408
-0.19307394 0.024846701 0.35985741
-0.19092764 0.024819296 0.35991988
-0.18921046 0.024797184 0.35996154
-0.2208828 0.02678689 0.35811797
-0.21891561 0.027161352 0.35824296
-0.21719259 0.027140798 0.35839921
-0.21501565 0.027111812 0.35854504
-0.2128581 0.027085029 0.35871169
-0.21115059 0.027065676 0.35886788
-0.20901166 0.027040655 0.35904494
-0.20687294 0.02701542 0.35921162
-0.20514414 0.026992526 0.35930538
-0.20298819 0.026964406 0.35941991
-0.20079787 0.026931318 0.35946161
-0.19905004 0.026905026 0.35949287
-0.19691364 0.026878372 0.35960743
-0.19477752 0.026851432 0.35971156
-0.19304541 0.02682633 0.35974279
-0.19083691 0.027099416 0.35988343
-0.18924923 0.02717939 0.35996154
-0.22021176 0.028379137 0.35808674
-0.21879825 0.028998345 0.35813671
-0.21714586 0.029135808 0.35825339
-0.21500677 0.02911027 0.35846171
-0.21286137 0.029083582 0.35864916
-0.21111088 0.029057346 0.35873255
-0.20894594 0.029027263 0.35886443
-0.2067797 0.028996611 0.35898244
-0.2050337 0.028969994 0.359045
-0.20288461 0.028941056 0.35916996
-0.20075351 0.028914304 0.35931578
-0.19903481 0.028890705 0.35939908
-0.19689272 0.028861701 0.35950324
-0.19475669 0.028833203 0.35960743
-0.19306381 0.028812515 0.35971156
-0.1910788 0.029015819 0.35983655
-0.18928368 0.029165683 0.35996154
-0.21845153 0.031155858 0.35808674
-0.21716464 0.031139439 0.35821173
-0.21501257 0.031110756 0.35839924
-0.2128484 0.031079974 0.35855544
-0.21110398 0.031053169 0.35864919
-0.20891072 0.031017264 0.35873255
-0.20671856 0.030981069 0.35880542
-0.20497298 0.030952957 0.35886788
-0.20326757 0.030930638 0.35899287
-0.2011417 0.030903308 0.35914913
-0.19900426 0.030873863 0.35927412
-0.19689663 0.030848583 0.35944077
-0.19474906 0.030816743 0.3595241
-0.1929913 0.031035032 0.35966155
-0.1909945 0.031172629 0.35983655
-0.18932033 0.031153167 0.35996154
-0.21717329 0.033141974 0.35814926
-0.21504603 0.033115719 0.35837835
-0.21283807 0.033076629 0.35846171
-0.21108742 0.033047322 0.35854504
-0.20900671 0.032912239 0.35863358
-0.206871 0.033085607 0.35865813
-0.20492661 0.032937016 0.35871169
-0.20320958 0.032911658 0.35881582
-0.20110944 0.032887083 0.35901716
-0.1990108 0.032862544 0.35921165
-0.19692563 0.032839835 0.35941991
-0.19481151 0.03281204 0.35956573
-0.19323087 0.032953709 0.35971156
-0.19107787 0.033169866 0.35991988
-0.2172223 0.035151184 0.35814923
-0.21506931 0.035119567 0.35833669
-0.21288559 0.035082597 0.35846171
-0.21108535 0.035043754 0.35846171
-0.20903492 0.034922048 0.35848671
-0.20690794 0.035039242 0.35851172
-0.20490021 0.034923717 0.3585867
-0.20317739 0.034896068 0.35868046
-0.20112206 0.034878157 0.35896167
-0.19907121 0.034860849 0.35924286
-0.19699091 0.034838121 0.35946158
-0.19489841 0.034812905 0.35964906
-0.19304363 0.035300639 0.35978299
-0.19101351 0.03506051 0.35993028
-0.21727401 0.037161887 0.3581492
-0.21507858 0.03712162 0.35826728
-0.21291099 0.037085686 0.35842004
-0.21113487 0.037049245 0.35846171
-0.20915075 0.037119124 0.35846168
-0.20698984 0.036856696 0.35846168
-0.20487623 0.036910385 0.35846171
-0.20320649 0.036891103 0.35864916
-0.20114478 0.036871381 0.35891998
-0.19913395 0.03686085 0.35927412
-0.19706616 0.036839649 0.35951716
-0.19497651 0.03681403 0.35971156
-0.19287519 0.037183054 0.35985735
-0.19089067 0.037019346 0.35996154
-0.21656232 0.039287362 0.3581284
-0.21494517 0.039046414 0.35826173
-0.21293251 0.039088592 0.35836795
-0.21118671 0.039056085 0.35846171
-0.20894313 0.039003402 0.35846171
-0.20670773 0.038951486 0.35846171
-0.20492584 0.038910557 0.35846171
-0.20318468 0.038876913 0.3585242
-0.20114644 0.038860954 0.35883665
-0.19918153 0.038859166 0.35927412
-0.19713962 0.038842302 0.35956576
-0.19494066 0.039048146 0.35971156
-0.1929324 0.039180715 0.35987821
-0.19079363 0.039143138 0.35996154
-0.18920946 0.039640855 0.35996154
-0.18690051 0.039857469 0.35996154
-0.21647649 0.041164558 0.35814926
-0.21470159 0.041125897 0.35821173
-0.21296911 0.041094955 0.35833672
-0.21122883 0.041062113 0.35844088
-0.2089967 0.041009437 0.35846168
-0.20676047 0.04095513 0.35846171
-0.20497791 0.040912319 0.35846171
-0.20293269 0.040974688 0.35857108
-0.20096135 0.040744495 0.35887235
-0.19891182 0.040953156 0.35928977
-0.19690672 0.040715836 0.35951519
-0.19516274 0.040970139 0.35971156
-0.19294691 0.041170444 0.35981572
-0.19084087 0.041138388 0.35996154
-0.18909897 0.041099954 0.35996154
-0.18692839 0.041052628 0.35996154
-0.18476446 0.041006006 0.35996154
-0.18318518 0.041104864 0.35996154
-0.18175586 0.041339517 0.35996154
-0.21653533 0.043178771 0.35814923
-0.21475974 0.04313843 0.35821173
-0.21297072 0.04309487 0.35824299
-0.2112242 0.043059479 0.35833672
-0.20897965 0.04300195 0.35833672
-0.20677936 0.042952683 0.35839921
-0.20503218 0.042915542 0.35846171
-0.20284623 0.042867929 0.3585242
-0.20078984 0.042847238 0.35880542
-0.19917952 0.042837955 0.35908663
-0.19701281 0.042987686 0.35937232
-0.19504154 0.043187618 0.3595449
-0.19293384 0.043154404 0.3596977
-0.19080198 0.043115199 0.35979488
-0.18908215 0.043080006 0.35983655
-0.18702547 0.042935342 0.35985216
-0.18495391 0.043104343 0.35987228
-0.1830852 0.042958792 0.35996154
-0.18093342 0.042911589 0.35996154
-0.17894302 0.04339787 0.35996154
-0.21639104 0.044644982 0.35808674
-0.21478306 0.045144781 0.35814926
-0.21299984 0.045100782 0.35819089
-0.21120982 0.045054778 0.35821173
-0.20898131 0.044998251 0.3582395
-0.2067647 0.044943493 0.35827422
-0.20501739 0.04490475 0.35833669
-0.2029777 0.044865899 0.35846171
-0.20094211 0.044833656 0.35864025
-0.19911836 0.044813875 0.35887828
-0.19716069 0.044891533 0.35911787
-0.1949646 0.045157883 0.35930538
-0.1930321 0.045048181 0.35946161
-0.19100669 0.045172818 0.3595866
-0.18903437 0.045052625 0.35964909
-0.18688567 0.045006469 0.35969076
-0.18474852 0.044962324 0.35974279
-0.18308598 0.044938028 0.35986781
-0.18098116 0.0449006 0.35996154
-0.1788349 0.044852175 0.35996154
-0.1771419 0.045608629 0.35996154
-0.21434303 0.046736196 0.35808674
-0.21284558 0.046962392 0.35808674
-0.21121612 0.047054365 0.35811797
-0.20900142 0.046998788 0.35817006
-0.20678836 0.046942811 0.35821173
-0.20500489 0.046894342 0.35821173
-0.20302916 0.04677552 0.35833672
-0.20086507 0.047079425 0.35846174
-0.19905937 0.047186941 0.35864922
-0.19697596 0.047157548 0.35886443
-0.19487859 0.047124472 0.359045
-0.19303587 0.046984907 0.35922951
-0.19098538 0.047157854 0.359321
-0.18897779 0.047022004 0.35944077
-0.18709417 0.046984382 0.35951519
-0.18505993 0.046946932 0.35961786
-0.18306774 0.046912547 0.35973239
-0.18097506 0.04687677 0.35985044
-0.17886321 0.046835449 0.35991988
-0.17726068 0.04696225 0.35996154
-0.17589906 0.047169186 0.35996154
-0.2089904 0.048194036 0.35808674
-0.20675316 0.048131101 0.35808674
-0.2050001 0.048487067 0.35811797
-0.20307358 0.048726838 0.35817599
-0.20111868 0.049029078 0.35828313
-0.19903177 0.049168803 0.35849297
-0.19690458 0.049127501 0.35862836
-0.19478899 0.049088456 0.35877419
-0.1931054 0.049059048 0.35889915
-0.19098955 0.049018841 0.35902414
-0.18887931 0.048979454 0.35914916
-0.1872085 0.048952002 0.35927412
-0.18514091 0.048922747 0.35946158
-0.18307778 0.048894294 0.35964906
-0.18096738 0.048852492 0.35973239
-0.17876831 0.049044263 0.35978654
-0.17717016 0.049170941 0.35983655
-0.17519744 0.049236722 0.35994592
-0.17341146 0.049891341 0.35996154
-0.20085968 0.051066529 0.35815814
-0.19898343 0.051144768 0.35829505
-0.19696644 0.051105123 0.35843045
-0.19490567 0.051060684 0.35853314
-0.19300735 0.051017776 0.35860753
-0.19098724 0.050876252 0.35871169
-0.1889334 0.051043931 0.3587831
-0.18712364 0.050909933 0.35900331
-0.18507467 0.050884627 0.35922551
-0.18303697 0.050862115 0.35946158
-0.18097568 0.05083254 0.35964215
-0.17895342 0.050949663 0.35971156
-0.1771611 0.051143471 0.35971156
-0.17508663 0.051108178 0.35983655
-0.17301685 0.05107376 0.35996154
-0.1713272 0.051429942 0.35996154
-0.20025581 0.053158071 0.35808674
-0.19898345 0.053132862 0.35818049
-0.19723865 0.05308596 0.35821173
-0.1950773 0.053031638 0.35827422
-0.19288883 0.052969068 0.35827422
-0.19119373 0.052933581 0.35836795
-0.18907917 0.052889805 0.35848251
-0.18702987 0.052863743 0.35871169
-0.18501754 0.052847851 0.35900331
-0.18298203 0.052825116 0.35924286
-0.18083355 0.05309416 0.35944596
-0.17882569 0.053148646 0.35950327
-0.17714374 0.053113248 0.35956573
-0.17507945 0.053079948 0.35971159
-0.17300946 0.053044274 0.35983655
-0.17092487 0.053003434 0.35991988
-0.16925916 0.053364966 0.35996154
-0.20029546 0.054362122 0.35808674
-0.19900905 0.055128079 0.35810757
-0.19726945 0.055081051 0.3581492
-0.19506213 0.055012099 0.35812843
-0.19293329 0.054783594 0.35808674
-0.19112831 0.054896314 0.3581284
-0.18900506 0.054848373 0.35822564
-0.18692736 0.054812927 0.35839924
-0.18493387 0.054801945 0.35872555
-0.18293981 0.054790717 0.35904494
-0.18101971 0.054993868 0.35924739
-0.17881534 0.055121548 0.35936785
-0.17714871 0.055089816 0.35946161
-0.17506377 0.055048931 0.35956573
-0.17300388 0.055015326 0.35971156
-0.17092903 0.054976244 0.35981572
-0.16887832 0.054944381 0.35996154
-0.19862428 0.057118855 0.35808674
-0.19730243 0.05707752 0.35808674
-0.19554421 0.057023011 0.35808674
-0.19072156 0.056476582 0.35808674
-0.18872087 0.056952652 0.35810757
-0.18690473 0.057180058 0.35821173
-0.18489337 0.057163186 0.35850337
-0.18288529 0.057147194 0.35879502
-0.18095383 0.057025552 0.35902414
-0.17896612 0.057205103 0.35917592
-0.17714538 0.05706377 0.35933661
-0.17508405 0.057029359 0.35948935
-0.17304027 0.057000127 0.35966989
-0.17095484 0.056956522 0.35975325
-0.16890354 0.056923617 0.35989904
-0.16745748 0.057093717 0.35996154
-0.19693226 0.059071645 0.35808676
-0.1949617 0.059209101 0.35808674
-0.1869207 0.05916325 0.35811797
-0.18487124 0.059133958 0.35833672
-0.18284196 0.059110623 0.3585867
-0.18081683 0.059088454 0.35883665
-0.17877978 0.059061933 0.35905537
-0.17714395 0.059038408 0.35921162
-0.17510934 0.059011981 0.35941994
-0.17305845 0.058979586 0.3595866
-0.1710121 0.058948185 0.35975322
-0.1689599 0.058914237 0.35989904
-0.16687387 0.058867648 0.35996154
-0.19700396 0.061081465 0.35808674
-0.19480605 0.061009064 0.35808674
-0.19305354 0.060951997 0.35808674
-0.191456 0.06103399 0.35808674
-0.18653817 0.061144695 0.35808674
-0.18488008 0.061114416 0.35822564
-0.18282203 0.061081037 0.35842004
-0.18119518 0.06106047 0.35860753
-0.17917667 0.061039608 0.35886443
-0.17716496 0.061020821 0.35912827
-0.17513669 0.060995977 0.3593505
-0.17308854 0.060963806 0.3595241
-0.17105167 0.060934979 0.35971159
-0.16898893 0.06089646 0.35983655
-0.16693121 0.060858957 0.35996154
-0.1649092 0.060962718 0.35996154
-0.19696423 0.062989205 0.35808676
-0.19487906 0.063018978 0.35808674
-0.19312561 0.062960118 0.35808674
-0.19145861 0.062744327 0.35808674
-0.18490867 0.06310191 0.35814926
-0.18283051 0.063060775 0.35830545
-0.18096484 0.062959351 0.35853669
-0.17900893 0.063090593 0.35873669
-0.17717765 0.063000754 0.35902411
-0.17519291 0.062991008 0.35933661
-0.17315055 0.062960267 0.35952407
-0.17111266 0.062930577 0.35971156
-0.16904895 0.062890887 0.35983655
-0.16699024 0.062852249 0.35996154
-0.16480115 0.06302949 0.35996154
-0.1962577 0.064674124 0.35808674
-0.19480269 0.064891718 0.35808674
-0.19334078 0.06484133 0.35808674
-0.19187206 0.064523309 0.35808674
-0.18452497 0.065082945 0.35810757
-0.18286248 0.065049201 0.35823259
-0.18092988 0.064924635 0.35846171
-0.17898236 0.065115027 0.35869384
-0.17691505 0.064987771 0.35900849
-0.17496164 0.064963736 0.35922951
-0.17317455 0.064943977 0.35944077
-0.17113593 0.064913429 0.35962826
-0.16907175 0.06487257 0.35975322
-0.16702536 0.064837798 0.35990599
-0.16502757 0.064948462 0.35996154
-0.16368544 0.06514889 0.35996154
-0.18415391 0.06706889 0.35808674
-0.18290696 0.067042887 0.35818046
-0.18085374 0.067008309 0.35837838
-0.17884111 0.066988423 0.35864919
-0.17700212 0.067053631 0.35891166
-0.17504153 0.066865124 0.35911164
-0.17316002 0.066913456 0.35927415
-0.17112143 0.066882022 0.35946158
-0.1690865 0.066851646 0.35964906
-0.16692337 0.06710428 0.35975847
-0.16499345 0.06717407 0.35991988
-0.16301298 0.067222312 0.35996154
-0.16124654 0.067868017 0.35996154
-0.18285289 0.068871789 0.35811174
-0.18090484 0.069005042 0.35833672
-0.17887057 0.068976454 0.35856584
-0.17686103 0.068957239 0.35883665
-0.17481411 0.068922944 0.35902414
-0.17318779 0.068899475 0.35919082
-0.17113532 0.068861835 0.3593505
-0.16908367 0.068823978 0.35950327
-0.16717425 0.069023259 0.35967588
-0.16500475 0.069150448 0.35980532
-0.16296744 0.069116294 0.35996154
-0.16100805 0.069190331 0.35996154
0.043418124 0.068507776 0.35821173
-0.182576 0.071022734 0.35808674
-0.18097895 0.071011804 0.35833672
-0.17892271 0.070974275 0.3585242
-0.17689182 0.070946209 0.35875335
-0.17485437 0.070915088 0.35896164
-0.17296633 0.070959374 0.35911164
-0.17097671 0.07075648 0.35923663
-0.16909629 0.07119748 0.35935745
-0.16707133 0.07116916 0.35955879
-0.16503707 0.071136318 0.35973239
-0.16298798 0.071096338 0.35986435
-0.16091804 0.071046494 0.35994068
-0.15911657 0.071261488 0.35996154
-0.1569961 0.071250722 0.35996154
-0.15507662 0.071273372 0.35996154
-0.1529929 0.071212262 0.35996154
-0.15105641 0.071288824 0.35996154
-0.18265332 0.073032506 0.35808674
-0.18101329 0.073004298 0.35825339
-0.17897709 0.072974183 0.35848257
-0.17691784 0.072934076 0.35865614
-0.17486615 0.072896406 0.35883665
-0.17322882 0.072867505 0.35898247
-0.17116205 0.072822154 0.35911438
-0.16911213 0.07317806 0.35924286
-0.16708505 0.073148243 0.3594408
-0.16505195 0.07311523 0.35961783
-0.16299458 0.07307069 0.35973239
-0.16090876 0.073012337 0.35977405
-0.15898576 0.073034458 0.35978657
-0.15699223 0.072822824 0.35983655
-0.15507264 0.072844267 0.35983655
-0.15298942 0.073174968 0.3598088
-0.15095699 0.07313583 0.35991991
-0.14952771 0.07330101 0.35996154
-0.18271658 0.074642003 0.35808674
-0.18107045 0.075007021 0.35821173
-0.17902814 0.074973918 0.35843047
-0.17692854 0.074916042 0.3585242
-0.17486462 0.074872352 0.35868046
-0.17321697 0.074838303 0.35880542
-0.17105144 0.075087734 0.35893038
-0.16910051 0.075146846 0.35906577
-0.16706847 0.075114094 0.35925332
-0.16504963 0.075086765 0.35946158
-0.16297787 0.075034492 0.3595449
-0.16089199 0.074974589 0.35958657
-0.15906425 0.074929886 0.359658
-0.15704753 0.07486733 0.35966474
-0.15506472 0.074806392 0.35966992
-0.15300222 0.075145766 0.35969076
-0.15095769 0.075099781 0.35977405
-0.1489522 0.075072311 0.35994068
-0.14731583 0.075426169 0.35996154
-0.18113005 0.077012137 0.35817006
-0.17902936 0.076953478 0.35827422
-0.17694831 0.07690227 0.35840616
-0.17485501 0.076844789 0.35850337
-0.17320716 0.076809801 0.35862839
-0.17125566 0.07698933 0.35872954
-0.16911022 0.077125251 0.35893041
-0.16707294 0.077089407 0.35910749
-0.16502029 0.077045694 0.35924286
-0.16298164 0.077007748 0.35939911
-0.16090479 0.076950826 0.35946161
-0.15922482 0.076895446 0.35946161
-0.15713005 0.07682734 0.35946158
-0.15506272 0.077164605 0.35948244
-0.15301086 0.07711482 0.35955879
-0.15098645 0.077078089 0.35969076
-0.14897737 0.077048384 0.35985044
-0.14703926 0.077171482 0.35996154
-0.14510965 0.077551961 0.35996154
-0.14161137 0.077647768 0.35996154
-0.18077055 0.079007193 0.35814923
-0.17907938 0.078954667 0.35821173
-0.17694247 0.07887762 0.35823259
-0.17475197 0.079047456 0.35828671
-0.17317979 0.079168297 0.35837841
-0.17111596 0.079120643 0.35851726
-0.16908269 0.079086475 0.35871169
-0.16706002 0.079056576 0.35891998
-0.16504072 0.079027802 0.35912833
-0.16297482 0.078975938 0.35922554
-0.16089147 0.078914471 0.35927412
-0.15906329 0.078754738 0.35935447
-0.15704262 0.078898154 0.35933661
-0.15508081 0.079139799 0.35936785
-0.15302704 0.07908804 0.35944077
-0.15099484 0.079046495 0.35955533
-0.1489927 0.079019912 0.35973239
-0.1469762 0.07898517 0.35986781
-0.14494669 0.07894253 0.35996154
-0.14288339 0.078880332 0.35996154
-0.14083315 0.079085045 0.35996154
-0.13905679 0.079165697 0.35996154
-0.13757649 0.079918668 0.35996154
-0.18073049 0.080846883 0.35808674
-0.17913155 0.080957972 0.3581492
-0.17699371 0.080878966 0.35817009
-0.17493968 0.080959052 0.35816172
-0.17316407 0.081136592 0.35818049
-0.17109846 0.081086926 0.35831591
-0.16905692 0.08104796 0.35849297
-0.16704881 0.081024408 0.35873249
-0.16502459 0.080992587 0.35893041
-0.16296647 0.080943272 0.35904494
-0.16089381 0.080885753 0.3591179
-0.15922737 0.080834523 0.35914916
-0.15715533 0.081168547 0.35916996
-0.15509176 0.081111856 0.35923246
-0.15303896 0.081059508 0.35930884
-0.15101373 0.081020914 0.35944077
-0.1490038 0.080989689 0.35960048
-0.14698561 0.08095336 0.35973239
-0.14493752 0.08089941 0.35978103
-0.14289615 0.080848143 0.35983655
-0.14096786 0.080902465 0.35989904
-0.13884354 0.081151046 0.35996154
-0.13734335 0.08123935 0.35996154
-0.17959896 0.082576483 0.35808674
-0.17274094 0.082307145 0.35808674
-0.17090376 0.082569167 0.35813671
-0.1690331 0.083009802 0.35827422
-0.16702017 0.082983337 0.3585034
-0.16501044 0.082957953 0.35873255
-0.16297264 0.082917877 0.3588922
-0.1608981 0.082858242 0.35896161
-0.15922669 0.082803331 0.35898247
-0.15715463 0.083135866 0.35900328
-0.15511325 0.083089828 0.3591179
-0.15306742 0.083040297 0.35921165
-0.15102537 0.082991809 0.35930538
-0.14901368 0.082959063 0.35946158
-0.14700499 0.082927406 0.35961783
-0.14496617 0.082877778 0.3596907
-0.14291042 0.082817264 0.35971156
-0.14089122 0.083168715 0.35978103
-0.13888945 0.083137497 0.35991988
-0.13726383 0.083097361 0.35996154
-0.16887885 0.084839851 0.35808674
-0.16700298 0.084947504 0.35829505
-0.16500755 0.084928945 0.35855547
-0.16296788 0.084887035 0.35871169
-0.16089001 0.08482416 0.35877419
-0.15904425 0.085045822 0.3587831
-0.15706161 0.085204676 0.35885227
-0.15511858 0.085059606 0.35896161
-0.1530679 0.085006326 0.35904494
-0.15103006 0.084959209 0.35914913
-0.14901373 0.084923178 0.35929498
-0.14700054 0.084888376 0.35944077
-0.14497967 0.084848136 0.35955882
-0.14296767 0.084812365 0.3596907
-0.1409449 0.085161455 0.35975322
-0.13892075 0.085116304 0.35983655
-0.13691626 0.085082233 0.35996154
