# .PCD v0.7 - Point Cloud Data file format
VERSION 0.7
FIELDS x y z
SIZE 4 4 4
TYPE F F F
COUNT 1 1 1
WIDTH 1413
HEIGHT 1
VIEWPOINT 0 0 0 1 0 0 0
POINTS 1413
DATA ascii
0.093015887 0.0031830266 0.3721894
0.095064402 0.0031885642 0.37230745
0.097114742 0.0031942122 0.37241855
0.099154465 0.0031993736 0.37247407
0.10117846 0.0032042395 0.37246022
0.10280173 0.0028113455 0.37246022
0.10483477 0.0028161847 0.37246022
0.1068706 0.0028211144 0.37246022
0.10893414 0.0028267354 0.37254354
0.11102606 0.0028331708 0.37271017
0.11311711 0.0028394451 0.37285599
0.11518044 0.0028450866 0.37289762
0.11684316 0.002849964 0.37296015
0.11890059 0.002855473 0.37296012
0.12095112 0.0028608004 0.37292892
0.12299825 0.0028660502 0.37287679
0.12504123 0.0028712747 0.37280393
0.1271016 0.0028769698 0.37277269
0.12917599 0.0028829654 0.37277266
0.13086034 0.0028882534 0.37283516
0.13297965 0.0028953126 0.37293932
0.13513017 0.0029029367 0.37311637
0.13687196 0.0029094995 0.37330389
0.13903421 0.0029173912 0.37348092
0.14119841 0.0029252695 0.37364757
0.14290741 0.0029311648 0.37371007
0.14502646 0.0029380759 0.3737309
0.14715813 0.002945225 0.37377256
0.14887898 0.002951357 0.37383506
0.15097003 0.0029577147 0.37375173
0.15308182 0.0029645879 0.37371007
0.1547884 0.0029703919 0.37371007
0.15692635 0.0029777458 0.37371007
0.15906914 0.0029851983 0.37371007
0.16082765 0.0029920239 0.37380379
0.16303092 0.0030005632 0.37391838
0.16477583 0.0030070909 0.37396005
0.17346621 0.0030391281 0.37396005
0.17477807 0.0030440867 0.37396005
0.17691027 0.0030514195 0.37383506
0.17909175 0.0030595823 0.37380382
0.18085361 0.0030664273 0.37380382
0.18290058 0.0031564296 0.37383506
0.18508744 0.0030023456 0.37396005
0.18698354 0.0032281789 0.37396005
0.1889149 0.0035091743 0.37396005
0.20106168 0.003149796 0.37396005
0.2033354 0.0031594883 0.37396005
0.20516036 0.003167331 0.37396005
0.20695589 0.0031746503 0.37389755
0.20882593 0.0031832457 0.37396005
0.21066673 0.0031913184 0.37396005
0.21205275 0.0036115199 0.37396005
0.25922054 0.0034220461 0.37396005
0.26073125 0.0030044753 0.37396005
0.26272634 0.0030138984 0.37391838
0.26471487 0.0030232829 0.37385592
0.26631865 0.0030316438 0.37396005
0.095222019 0.0049688481 0.37211651
0.09705738 0.0051725525 0.37217897
0.099094979 0.0051788962 0.37223104
0.10113283 0.0051851529 0.37227273
0.10317496 0.0047948305 0.37232134
0.10519993 0.004800309 0.37229356
0.10683426 0.0048052431 0.37231442
0.108895 0.0048122425 0.37239075
0.11096971 0.0048198174 0.37250188
0.11304069 0.0048270444 0.37258521
0.11508986 0.0048333933 0.37258518
0.11691373 0.0049531958 0.37260303
0.11890958 0.0047466676 0.3726477
0.12084591 0.0048518204 0.37258521
0.12290382 0.0048584538 0.37257129
0.12493244 0.0048639313 0.37246022
0.12698263 0.0048702601 0.37240466
0.12905282 0.00487734 0.37239769
0.13104218 0.0049848752 0.3724446
0.13311689 0.0047802366 0.37263876
0.13501272 0.0049030171 0.37277266
0.13677597 0.0049124216 0.37302265
0.13895614 0.0049232673 0.3732518
0.14113493 0.0049339365 0.37346014
0.14284317 0.0049411706 0.37352261
0.14500435 0.00495105 0.37365451
0.1471412 0.0049601304 0.37371007
0.14883697 0.0049668313 0.37371007
0.15096112 0.0049753287 0.3737101
0.15308982 0.0049839481 0.37371007
0.1547965 0.0049909423 0.37371007
0.15693456 0.004999808 0.3737101
0.15907747 0.0050087981 0.37371007
0.16084951 0.0050177681 0.37383506
0.16303951 0.0050281323 0.37391838
0.16478449 0.0050361766 0.37396005
0.17347334 0.004667752 0.37396005
0.1747873 0.005080964 0.37396005
0.1769262 0.0050896122 0.37384894
0.1790663 0.0050982763 0.3737309
0.1808178 0.0051062587 0.37371007
0.18303254 0.0051169419 0.37372398
0.18529147 0.0051288232 0.37381423
0.18709952 0.0051382743 0.37387672
0.18891263 0.005147913 0.37393919
0.19070955 0.0051570744 0.37396005
0.19294922 0.0051682494 0.37396005
0.19474784 0.0055881147 0.37396005
0.20125122 0.004716231 0.37396005
0.20334393 0.0048091169 0.37396005
0.20516896 0.0048183696 0.37396005
0.2069646 0.0048269802 0.37389755
0.20883469 0.0048371623 0.37396005
0.21067555 0.0048467033 0.37396005
0.21298464 0.0048587709 0.37396005
0.21530432 0.0052857939 0.37396005
0.26091233 0.0049902536 0.37396005
0.26274753 0.0051429877 0.37392882
0.26475832 0.0051551354 0.37389755
0.26633269 0.0051654079 0.37396005
0.099059641 0.006365472 0.37208524
0.10110378 0.0067692022 0.37214774
0.10324719 0.0069460124 0.37213883
0.10516053 0.0071789199 0.37212691
0.10678825 0.0071845367 0.37212691
0.10883792 0.0071924948 0.3721686
0.11090336 0.0072013945 0.37225187
0.11296537 0.0068122833 0.37231436
0.11503885 0.006821183 0.37239772
0.1170907 0.0068287081 0.37239775
0.11914574 0.0068363668 0.37239772
0.12079236 0.0068426002 0.37239772
0.12283328 0.0068493984 0.3723352
0.12486656 0.0068557411 0.3722415
0.12691692 0.0068630031 0.3721894
0.1289739 0.0068705352 0.37214774
0.13106392 0.0068798517 0.3721894
0.13319539 0.0068911458 0.37233523
0.13493034 0.0069016446 0.37252271
0.13668109 0.0069128587 0.3727414
0.13888705 0.0069275089 0.37304351
0.14107263 0.0069409455 0.37327263
0.14281602 0.0069513656 0.37342888
0.14494585 0.0069618416 0.37348092
0.14710097 0.0069734463 0.37358508
0.14880875 0.0069818264 0.37361634
0.15095358 0.0069927219 0.3736684
0.15309921 0.0070036291 0.37371007
0.15480599 0.0070118131 0.37371007
0.15694422 0.0070221922 0.37371007
0.15910059 0.0070333425 0.3737413
0.16085941 0.0070436187 0.37383506
0.16305858 0.0070564416 0.37393919
0.16479465 0.0070655867 0.37396005
0.17494328 0.0069831521 0.37396005
0.17696016 0.0071289088 0.37389755
0.17912742 0.0071397624 0.37383506
0.18082912 0.0071471548 0.37371007
0.18303716 0.0071595437 0.37371007
0.18525143 0.0071720975 0.37371007
0.18707484 0.0071840407 0.37380382
0.18887191 0.0071949689 0.37383506
0.1906738 0.0072059464 0.37386632
0.19296139 0.0072209737 0.37396005
0.19529651 0.0069882362 0.37396005
0.19656226 0.0076536802 0.37396005
0.20198555 0.0060388097 0.37396005
0.20335658 0.0068714838 0.37396005
0.20518176 0.0068825018 0.37396005
0.20701213 0.0068936371 0.37396005
0.20884776 0.0069048926 0.37396005
0.21067701 0.0069158375 0.37393925
0.2129743 0.0069298032 0.37391838
0.21530344 0.0069448114 0.37393925
0.21708393 0.0071226046 0.37396005
0.21858096 0.0077971295 0.37396005
0.26295093 0.0067062252 0.37396005
0.26481619 0.0068616052 0.37396005
0.26634645 0.0068726977 0.37396005
0.10963518 0.0087828375 0.37208524
0.11085987 0.0087877093 0.37208524
0.11292049 0.0087972041 0.37214079
0.11497607 0.0088062594 0.37216857
0.11702681 0.0088148322 0.37216857
0.11908741 0.0088240979 0.3721894
0.12115647 0.0088338396 0.37222412
0.12321316 0.0088425977 0.37221023
0.12485083 0.0088489326 0.37216857
0.12678638 0.0087560927 0.37208527
0.12909693 0.0083340919 0.37208524
0.13113977 0.008776213 0.37208527
0.13314511 0.0088874046 0.37216857
0.13485684 0.0088983243 0.37229359
0.13706213 0.0089161759 0.37261295
0.13926175 0.0089333002 0.37289762
0.14101966 0.0089467699 0.373106
0.14274251 0.0089578619 0.3732101
0.14490499 0.0089720227 0.37334901
0.14705406 0.008985295 0.37343928
0.1487737 0.0089957118 0.37350175
0.15091945 0.0090084486 0.37355727
0.15306751 0.0090211788 0.37360594
0.15480848 0.0090325652 0.3736892
0.15695548 0.0090450058 0.3737101
0.15911649 0.0090580387 0.37375173
0.16087098 0.0090699019 0.37383506
0.16307941 0.0090853646 0.37396005
0.16502413 0.0092997774 0.37396005
0.17503117 0.0093609234 0.37396005
0.17697638 0.0091681099 0.3739045
0.17914055 0.0091803139 0.37383506
0.18085462 0.0087808771 0.3737413
0.18304776 0.008794059 0.37371007
0.18526214 0.0088081295 0.37371007
0.18703875 0.0088195391 0.37371007
0.18886711 0.0088332612 0.37380382
0.19066893 0.0088457111 0.37383506
0.19294053 0.0088619618 0.37389755
0.19521946 0.0088784592 0.37396005
0.19687299 0.0090267556 0.37396005
0.19838072 0.0093114665 0.37396005
0.2030988 0.0090148095 0.37396005
0.20519663 0.0089470223 0.37396005
0.2070272 0.0089599472 0.37396005
0.20884548 0.0089722304 0.37392879
0.210897 0.009067432 0.37381005
0.21309817 0.0089171994 0.37378508
0.21524125 0.0090161012 0.37380382
0.21717378 0.0090328464 0.37392879
0.21905836 0.0090475166 0.37396005
0.22046536 0.0094740745 0.37396005
0.26533717 0.0081451256 0.37396005
0.11782869 0.010408953 0.37208524
0.11907342 0.010813935 0.37211651
0.12116143 0.010826693 0.37221023
0.12322284 0.01083687 0.37221023
0.12485365 0.010843331 0.37214774
0.12690033 0.010852036 0.37208524
0.1291104 0.01099659 0.37208524
0.13146216 0.010875853 0.37208524
0.13312578 0.010884749 0.37208524
0.13482602 0.010896481 0.372179
0.13699384 0.010914323 0.37239769
0.13919109 0.010934261 0.37267891
0.14092858 0.010948297 0.37283516
0.14309549 0.010965263 0.37300181
0.14526035 0.010981772 0.37314767
0.14698789 0.010994516 0.37324136
0.14873174 0.011008285 0.37336636
0.15089229 0.011023889 0.37346008
0.15303291 0.011037781 0.37349138
0.1547778 0.011051146 0.37358508
0.15695946 0.011067614 0.3736892
0.1591116 0.01108186 0.37371007
0.16087064 0.011095658 0.37380382
0.16306551 0.011112474 0.37389755
0.1652526 0.011128583 0.37396005
0.16655412 0.0115436 0.37396005
0.17351612 0.011592188 0.37396005
0.17482536 0.0111939 0.37396005
0.17695813 0.011205579 0.37383506
0.17911044 0.011218462 0.3737413
0.18085431 0.010821897 0.37371007
0.18306273 0.010837648 0.3737101
0.18527736 0.010853616 0.37371007
0.18705411 0.010866567 0.37371007
0.18883526 0.010879672 0.37371007
0.19096527 0.010998441 0.37372571
0.19315179 0.010796396 0.37378147
0.19518131 0.010930977 0.37385592
0.19701685 0.010946573 0.37391838
0.19884677 0.01096186 0.37396005
0.20065965 0.010975999 0.37396005
0.20293304 0.010993911 0.37396005
0.20521389 0.01101206 0.37396005
0.20700997 0.01102484 0.37389755
0.20879912 0.011037306 0.37381423
0.21105012 0.011053494 0.37372398
0.21335162 0.011072201 0.37371007
0.21520557 0.011087672 0.37371007
0.21713781 0.011107032 0.37383506
0.21907711 0.011126581 0.37396005
0.2208575 0.011308326 0.37396005
0.11948279 0.01240869 0.37208524
0.1210483 0.012717911 0.37214774
0.12305757 0.012944666 0.37221023
0.12488572 0.012840866 0.37221023
0.12692098 0.012849232 0.37211305
0.12898292 0.012860133 0.37208524
0.13105842 0.012872253 0.37208527
0.13313514 0.012484553 0.37208524
0.13489549 0.012735846 0.37211022
0.13695237 0.012912995 0.3722519
0.13912189 0.012933209 0.37246022
0.14084667 0.012947994 0.37258521
0.14300184 0.012966236 0.37272409
0.14515992 0.012984402 0.37285599
0.14689861 0.01299986 0.37298098
0.14908497 0.013019944 0.37315458
0.15126358 0.013039076 0.37329343
0.15299988 0.013053584 0.37337676
0.1547315 0.013067611 0.37343928
0.15691842 0.013086613 0.3735573
0.1591173 0.013106429 0.3736892
0.16085401 0.013120196 0.3737309
0.16304111 0.013138443 0.37380731
0.16525863 0.013158976 0.37393919
0.16691472 0.01333462 0.37396005
0.16830823 0.013995895 0.37396005
0.17178282 0.013208816 0.37396005
0.173089 0.012811439 0.37396005
0.17482354 0.012823659 0.37392879
0.1769219 0.012833774 0.3737309
0.17909372 0.012849102 0.3736788
0.18084055 0.012861889 0.37364757
0.18301822 0.01287742 0.37358508
0.18524793 0.012896328 0.37361634
0.18707129 0.012914093 0.37371007
0.1888527 0.012928763 0.37371007
0.19108593 0.012947357 0.37371007
0.19332589 0.012966208 0.37371007
0.1951233 0.0129815 0.37371007
0.19695836 0.012999075 0.37377256
0.19879888 0.013016975 0.37383506
0.20106554 0.013036818 0.37383506
0.20333949 0.013056932 0.37383506
0.20516461 0.013073241 0.37383506
0.20699498 0.013089744 0.37383506
0.20879558 0.013104245 0.37377256
0.21106236 0.013123195 0.37371007
0.21337195 0.013144622 0.37371007
0.21528018 0.013165331 0.37380382
0.21721312 0.013187317 0.37392879
0.21909818 0.013206171 0.37396005
0.22049749 0.012803357 0.37396005
0.1211431 0.014809641 0.37208524
0.12298937 0.014744672 0.37218523
0.12489782 0.014837099 0.37221023
0.12694514 0.014847438 0.37214777
0.12899548 0.01485804 0.37208524
0.13107122 0.01487137 0.37208524
0.13523144 0.014498338 0.37208524
0.13692747 0.014912444 0.37214777
0.13905385 0.014930436 0.3722415
0.14078966 0.014948258 0.37239772
0.14292268 0.014966375 0.37248108
0.14506891 0.014985479 0.37258518
0.14680657 0.015002673 0.37271017
0.14898886 0.01502486 0.37287679
0.15119424 0.015048942 0.37308514
0.15293404 0.015065523 0.3731789
0.15509634 0.015084662 0.37325183
0.15729484 0.015106997 0.37339759
0.15904905 0.015124202 0.37349135
0.16078052 0.015138986 0.37352258
0.16299696 0.015162121 0.3736684
0.16518793 0.015182556 0.37374133
0.16697527 0.015201818 0.37386632
0.16883805 0.014976573 0.37396005
0.17091262 0.014829851 0.37393224
0.17303896 0.014843239 0.37381423
0.17474873 0.014854745 0.3737309
0.17688394 0.014868675 0.37361282
0.17903708 0.014884016 0.37352261
0.18078844 0.014898553 0.37350178
0.18299623 0.014918066 0.37350172
0.18525141 0.014941216 0.37358508
0.18703847 0.014958042 0.37360594
0.18885112 0.014976733 0.3736684
0.19106309 0.014995641 0.37362671
0.19330287 0.015016511 0.37362674
0.19511102 0.015034281 0.37364757
0.19693504 0.015053137 0.3736892
0.19875322 0.015071365 0.37371007
0.20103441 0.015094406 0.37373787
0.20332696 0.015118063 0.37377259
0.20517491 0.015137875 0.37381423
0.2070169 0.015157059 0.37383506
0.20875898 0.015009043 0.37383506
0.21092287 0.014697027 0.37376004
0.21317048 0.014887105 0.37381008
0.21537042 0.014830628 0.37392879
0.21724489 0.014435265 0.37396005
0.12197462 0.016011199 0.37208524
0.12321466 0.016418181 0.37208524
0.12486643 0.016429016 0.37208524
0.12693682 0.016742459 0.37208527
0.1289252 0.016696095 0.37208524
0.13052732 0.016333945 0.37208524
0.13747223 0.016382998 0.37208524
0.13911171 0.016771212 0.37213522
0.14104384 0.017049145 0.37219462
0.14310102 0.016853463 0.37228164
0.14499547 0.016986022 0.37235606
0.14690624 0.017120559 0.37246022
0.14903733 0.016931832 0.37269455
0.15110947 0.017055145 0.37283516
0.1528527 0.017073888 0.37293932
0.15502691 0.017096369 0.37304345
0.15721573 0.017120102 0.37316847
0.15896466 0.017138531 0.3732518
0.16071771 0.01715707 0.37333512
0.16280875 0.017078564 0.37344447
0.16513352 0.016800402 0.37358508
0.16692024 0.016821329 0.37371007
0.16893955 0.016922692 0.37376004
0.17102608 0.016778719 0.37376004
0.17299537 0.01687476 0.3736788
0.17495164 0.016969539 0.3735601
0.17701772 0.016822696 0.37348509
0.1790271 0.016922228 0.37346011
0.18078847 0.016939066 0.37346011
0.18299626 0.01696042 0.37346008
0.18524131 0.016984925 0.37352261
0.18704908 0.017005349 0.37358508
0.18883033 0.01702315 0.37358508
0.19104213 0.017043771 0.37354341
0.19327098 0.017065689 0.37352258
0.19506797 0.017084258 0.37352258
0.19690265 0.017105982 0.37358508
0.19872619 0.017126407 0.37361631
0.20103143 0.017153883 0.3736892
0.20331642 0.017179329 0.37371007
0.20514148 0.017199174 0.37371007
0.20697172 0.017219257 0.37371007
0.20891018 0.016993305 0.37373504
0.21067841 0.016848648 0.37377259
0.21256058 0.016872 0.37383506
0.21448475 0.016898334 0.37396005
0.1411196 0.018549791 0.37208524
0.1432355 0.018970182 0.37211651
0.14495578 0.018989181 0.37221023
0.14669229 0.019009881 0.37233523
0.1488813 0.019037783 0.37252271
0.15106417 0.019064341 0.37267894
0.15278982 0.019082641 0.3727414
0.15496756 0.01910766 0.37285599
0.15714681 0.019132556 0.37296015
0.15888615 0.019151531 0.37302265
0.16106842 0.019175917 0.37310597
0.16337135 0.018961553 0.37326011
0.16506119 0.018820772 0.37337676
0.16685665 0.018844629 0.37352261
0.16905387 0.018868785 0.3735851
0.17122869 0.018890109 0.37358508
0.17294401 0.018904347 0.37352261
0.17509386 0.0189225 0.3734462
0.17725189 0.018941196 0.37337676
0.17898905 0.018957255 0.37333512
0.18075013 0.018975565 0.37333512
0.18299842 0.019002968 0.37341842
0.18523312 0.019028714 0.37346008
0.18702012 0.019048862 0.37348092
0.18880111 0.019068228 0.37348092
0.19102336 0.019091768 0.37346008
0.1932628 0.019116677 0.37346008
0.19505982 0.019136893 0.37346008
0.19686155 0.019157354 0.37346008
0.19860215 0.019014711 0.37351012
0.20099545 0.01879834 0.37358508
0.20330285 0.018827623 0.37364757
0.20512784 0.018848885 0.37364757
0.20695806 0.018870404 0.37364757
0.20881106 0.018893797 0.3736788
0.21066964 0.018917454 0.37371007
0.21255189 0.01894293 0.37377256
0.21451186 0.018975019 0.37396005
0.093469352 0.021401323 0.37208524
0.095085241 0.021411099 0.37208524
0.097107217 0.021423545 0.37208524
0.098321699 0.02143115 0.37208524
0.14365481 0.020177396 0.37208524
0.14494197 0.020994904 0.37212691
0.14710633 0.021022182 0.37226579
0.1492905 0.021051722 0.37243938
0.15102036 0.021072445 0.37252271
0.15275411 0.021093391 0.37260604
0.1549155 0.021118466 0.37268242
0.1570795 0.021143375 0.37275183
0.15882705 0.021165086 0.37283516
0.16097252 0.02118675 0.37283519
0.16318694 0.020812241 0.37299138
0.1649536 0.020835064 0.37308514
0.16675256 0.020861687 0.37324136
0.16894388 0.020887211 0.37329349
0.17110777 0.020909082 0.37327266
0.17285089 0.020927772 0.37327266
0.17502563 0.020950334 0.3732518
0.17719609 0.020972103 0.37321013
0.17895272 0.020991638 0.37321013
0.18071349 0.021011421 0.37321013
0.1829614 0.021041164 0.37329349
0.18522686 0.021072555 0.37339762
0.18703462 0.021096766 0.37346011
0.18881591 0.021117706 0.37346011
0.19104902 0.021144262 0.37346008
0.19328886 0.021171201 0.37346011
0.19508618 0.021193067 0.37346011
0.19688824 0.0212152 0.37346011
0.19878231 0.02099151 0.37346011
0.20096289 0.02085438 0.37347397
0.20325111 0.020884253 0.37350178
0.20507573 0.020907281 0.37350175
0.20690556 0.020930594 0.37350175
0.20877558 0.020957736 0.37356424
0.21067514 0.020987472 0.3736684
0.2125812 0.021017553 0.37377259
0.21454157 0.021052586 0.37396005
0.093474239 0.022194594 0.37208524
0.095092796 0.02260147 0.37208524
0.09711495 0.022614431 0.37208524
0.09873201 0.022227874 0.37208524
0.14494559 0.023003135 0.37208524
0.14710455 0.023031695 0.37221023
0.14926933 0.023060605 0.37233523
0.15100326 0.023083594 0.37242898
0.15314104 0.023107434 0.37246022
0.15529691 0.023133462 0.37252271
0.1570444 0.023157381 0.37261644
0.15876938 0.02317759 0.37264767
0.16091414 0.02320083 0.37264767
0.16309573 0.022824174 0.372731
0.16485687 0.022848152 0.3728143
0.16707085 0.022879407 0.37293231
0.16925997 0.022906734 0.37298098
0.17102684 0.022930428 0.37304345
0.17277889 0.02295178 0.37306431
0.17497236 0.022978527 0.37308508
0.17718177 0.023007041 0.37312683
0.17895836 0.023030652 0.37316847
0.18073939 0.023054527 0.37321016
0.18296733 0.023084084 0.3732518
0.18522249 0.02311662 0.37333512
0.18701999 0.023141386 0.37337676
0.1888327 0.023167772 0.37343928
0.19090006 0.022955706 0.37337083
0.19324653 0.022807825 0.37333512
0.19505991 0.022832882 0.37336636
0.19689476 0.022860177 0.37342888
0.19871837 0.022885891 0.37346011
0.20098458 0.022916026 0.37346008
0.20325808 0.022946596 0.37346011
0.20508283 0.022971401 0.37346011
0.20691285 0.022996511 0.37346011
0.20876563 0.023023821 0.37349138
0.21069458 0.02305923 0.37364757
0.21261273 0.023093008 0.37377256
0.21455559 0.02312902 0.37392879
0.2609984 0.023442704 0.37396005
0.26297316 0.023046762 0.37389755
0.26500863 0.023081679 0.37389755
0.26692963 0.023260748 0.37396005
0.1450495 0.024854535 0.37208524
0.14712085 0.02504427 0.37219635
0.14924136 0.025067836 0.37221023
0.15095386 0.025088923 0.3722519
0.15299445 0.025215585 0.37230396
0.15508771 0.025028968 0.37240666
0.15700205 0.025169412 0.37246022
0.15901665 0.024961162 0.37246019
0.16128165 0.024813689 0.37246022
0.16300145 0.024833636 0.37246022
0.16475242 0.024857944 0.37252271
0.16694021 0.024887709 0.37258518
0.16913407 0.02491801 0.37264767
0.17089981 0.024943359 0.37271017
0.17266981 0.024968989 0.37277269
0.1749305 0.025007429 0.37293932
0.17717408 0.025042748 0.37305388
0.17896064 0.02506947 0.3731164
0.18076698 0.025098484 0.37321013
0.18299539 0.025130151 0.3732518
0.18525101 0.025165062 0.37333512
0.18702795 0.02518885 0.37333512
0.18880934 0.02521294 0.37333512
0.19114985 0.024936896 0.37333512
0.19327645 0.024863323 0.37333512
0.1950738 0.024888158 0.37333512
0.19687593 0.024913304 0.37333512
0.1986829 0.024938764 0.37333512
0.2009638 0.024972847 0.3733629
0.2032674 0.025009295 0.37341845
0.20509233 0.025035881 0.37341845
0.20692253 0.025062798 0.37341842
0.20878132 0.025092931 0.37346008
0.21065767 0.02512463 0.37352261
0.21250157 0.024995958 0.37368506
0.21483526 0.024710407 0.37388507
0.21693066 0.025038026 0.37396005
0.2575238 0.025937121 0.37396005
0.25922814 0.025325961 0.37389755
0.26090351 0.025136605 0.37377259
0.26287708 0.024742723 0.37371007
0.26491192 0.024779771 0.37371007
0.26702246 0.02482345 0.37380382
-0.044185411 0.026811678 0.37371007
0.14540651 0.02662896 0.37208524
0.1471165 0.027053526 0.37212691
0.14926484 0.027083665 0.37221023
0.15096077 0.027103208 0.37221023
0.15308531 0.027128031 0.37221023
0.15524057 0.027157744 0.37227273
0.15697436 0.027182875 0.37233523
0.15910397 0.027034044 0.37231737
0.16105993 0.026710967 0.37231737
0.16294535 0.02684693 0.37227273
0.16497925 0.026971694 0.3722415
0.16709232 0.026786068 0.37231737
0.16900998 0.026926391 0.37231442
0.1707745 0.026953481 0.37237692
0.17304064 0.026996147 0.37257135
0.17532755 0.027041322 0.37279353
0.17714851 0.027075594 0.37293932
0.17896487 0.027108593 0.37306428
0.18078654 0.027141908 0.37318933
0.18290821 0.027072506 0.37324139
0.18527527 0.026804544 0.37333512
0.18705253 0.026829582 0.37333512
0.18881837 0.026852656 0.37330389
0.19101451 0.026879577 0.37323096
0.19324355 0.026910728 0.37321013
0.1950407 0.026937213 0.37321013
0.19684264 0.026964035 0.37321013
0.19864941 0.026991189 0.37321013
0.20092632 0.027027115 0.37323096
0.20322207 0.027065031 0.37327263
0.20504674 0.027093396 0.37327263
0.2069113 0.027126722 0.37333512
0.20876428 0.027158033 0.37336636
0.21065816 0.027194338 0.37346011
0.21288252 0.027099743 0.3735851
0.21508156 0.026763257 0.37372571
0.21735759 0.026910929 0.37383506
0.21925075 0.026944727 0.37387669
0.22105443 0.027143773 0.37391004
0.22306389 0.027431451 0.37396005
0.22495943 0.027882155 0.37396005
0.2414027 0.027054252 0.37396005
0.24318796 0.026946004 0.37396005
0.24515462 0.027404722 0.37396005
0.25555617 0.02760216 0.37396005
0.25710621 0.02733841 0.37379339
0.25882402 0.027219202 0.37361631
0.26073307 0.027247148 0.37346011
0.26274899 0.026859917 0.37346008
0.26478311 0.026899626 0.37346008
0.26691511 0.026948826 0.37358508
0.14732835 0.028463263 0.37208524
0.14932239 0.028930482 0.37208524
0.15093546 0.02911148 0.37208524
0.15307692 0.029140987 0.37212694
0.1552321 0.029172627 0.3721894
0.15686062 0.029033091 0.37221023
0.15908197 0.028818751 0.37221023
0.16119903 0.028841553 0.37214774
0.16288508 0.028454019 0.37208524
0.16503863 0.028482268 0.37208524
0.16719744 0.028510958 0.37208524
0.16892876 0.028534263 0.37208524
0.17069851 0.028969154 0.37214774
0.17296065 0.029014161 0.37233523
0.17525977 0.029064395 0.37258521
0.17712963 0.029108945 0.37283516
0.17894584 0.029144157 0.37296015
0.18078259 0.029182058 0.3731164
0.18315175 0.029046917 0.37319231
0.1852764 0.028849943 0.37327266
0.18704331 0.028874932 0.3732518
0.18880393 0.028898731 0.37321016
0.19100891 0.028928502 0.37315455
0.19321281 0.028957689 0.37308514
0.19500981 0.02898583 0.37308514
0.19681156 0.029014327 0.37308514
0.19895113 0.02915059 0.37306952
0.20115037 0.028967483 0.37310293
0.20319045 0.029121881 0.37314764
0.20503788 0.029155329 0.37318933
0.20687161 0.028773427 0.37321013
0.20875935 0.028811168 0.37330389
0.21065336 0.028849375 0.37339759
0.21301085 0.028895022 0.37348095
0.21538949 0.028942913 0.37358508
0.21730615 0.02898246 0.3736788
0.2191928 0.029017637 0.37371007
0.22112273 0.029058013 0.37380382
0.22304094 0.029096413 0.37386632
0.22498465 0.02913771 0.37396005
0.2264044 0.029163446 0.37396005
0.23983344 0.029415425 0.37396005
0.24126951 0.029019812 0.37393919
0.24316613 0.029050894 0.37385592
0.2451102 0.029087327 0.37383509
0.24707513 0.02912589 0.37383506
0.24896145 0.028995257 0.37386006
0.25106943 0.029209435 0.37389755
0.2530573 0.029249419 0.37389755
0.25497931 0.028857 0.37380379
0.25683221 0.02888057 0.3735851
0.25873423 0.028909422 0.37342888
0.26062095 0.028936276 0.37324136
0.26262403 0.028975753 0.37321013
0.26465735 0.029018128 0.37321013
0.2668111 0.029073142 0.37336636
0.15365227 0.031030402 0.37208524
0.15521632 0.031185871 0.37208524
0.15701623 0.030969214 0.37211022
0.15894833 0.030730378 0.37208527
0.1607597 0.030046193 0.37208524
0.17112248 0.0301902 0.37208524
0.17293403 0.031039791 0.37221026
0.17523299 0.03109321 0.37246025
0.1770829 0.03113714 0.37266853
0.17882818 0.031012937 0.37283516
0.18073335 0.030806353 0.37296015
0.18300258 0.03085079 0.37308514
0.18524827 0.030890614 0.37314764
0.18702549 0.030918777 0.37314767
0.18877542 0.03094211 0.37308514
0.19095539 0.030969689 0.37298095
0.19315161 0.030999418 0.37289765
0.19494815 0.031029213 0.37289765
0.19674948 0.031059384 0.37289765
0.19900818 0.031097652 0.37289762
0.20129105 0.031139132 0.37292892
0.2031268 0.0311733 0.37296015
0.20500243 0.031213036 0.37305388
0.20687614 0.030838976 0.37314764
0.20874651 0.030876616 0.37321016
0.21062295 0.030914485 0.37327266
0.21301602 0.030968197 0.37341842
0.21539493 0.031019019 0.37352261
0.21729352 0.03105857 0.37358508
0.2192231 0.031101888 0.3736892
0.22111024 0.031138802 0.37371007
0.22305684 0.030766509 0.37383506
0.22500089 0.030809807 0.37392879
0.22643971 0.030839402 0.37396005
0.23938666 0.031093894 0.37396005
0.24121001 0.031117801 0.37377256
0.24312001 0.031152565 0.37371007
0.24503654 0.031187735 0.37364757
0.24700108 0.03122868 0.37364757
0.24904077 0.031014625 0.37361008
0.25092837 0.030885825 0.37362674
0.25290141 0.030926017 0.37360594
0.25485358 0.030963304 0.37354341
0.25677022 0.030996002 0.37341845
0.25865027 0.03102391 0.37323096
0.26060927 0.031060919 0.37314764
0.26259047 0.031100327 0.37308514
0.26457053 0.030978192 0.37316018
0.26681069 0.030780902 0.37330389
0.15523365 0.032399211 0.37208524
0.15680279 0.032690763 0.37208524
0.15822399 0.032440897 0.37208524
0.17117465 0.033445112 0.37208524
0.17294781 0.033072647 0.37216857
0.17523733 0.033127401 0.37239772
0.17706266 0.03316921 0.37255394
0.17898914 0.032969687 0.37273517
0.18068747 0.032838214 0.37279353
0.18294936 0.032884095 0.37290457
0.18517052 0.03292191 0.37291846
0.18694711 0.032951623 0.37291849
0.18889727 0.033098161 0.37287086
0.19101202 0.032908931 0.37280393
0.19310336 0.033042092 0.372731
0.19488873 0.033071741 0.3727102
0.19668962 0.033103589 0.3727102
0.19894783 0.03314399 0.3727102
0.20123869 0.032777466 0.37277266
0.20310822 0.032818686 0.37286639
0.20498374 0.032860331 0.37296015
0.20683081 0.032896839 0.37299138
0.20870098 0.032936566 0.37305388
0.21061239 0.03298226 0.37317887
0.21297587 0.033034522 0.37327266
0.2153846 0.033092964 0.37342888
0.21728329 0.033134729 0.37349135
0.21922514 0.033182498 0.37361631
0.22115561 0.03322801 0.37371007
0.22306521 0.032852802 0.37377259
0.22502829 0.032901477 0.37389755
0.22696085 0.03294513 0.37396005
0.23750949 0.033585314 0.37396005
0.23938677 0.032777075 0.37389755
0.24119022 0.032799199 0.3736788
0.24305949 0.03283006 0.37355381
0.24499623 0.032869618 0.37352258
0.2469399 0.032909755 0.37349138
0.24889086 0.03295042 0.37346011
0.25087005 0.032994322 0.37346011
0.25285691 0.033038769 0.37346011
0.2548517 0.033083759 0.37346011
0.25674698 0.033115402 0.37330389
0.25867033 0.033150375 0.3731789
0.2606225 0.033188693 0.37308514
0.26264805 0.033235881 0.37308514
0.2647768 0.033029322 0.37308514
0.26686177 0.03292213 0.37329349
0.17086914 0.03523339 0.37211025
0.17300862 0.035115436 0.37222412
0.17526317 0.035165992 0.37237689
0.17706163 0.034797575 0.37249148
0.17886254 0.034835868 0.37258521
0.1809226 0.034795318 0.37266016
0.18306947 0.035000369 0.37271017
0.18512043 0.034956798 0.3727414
0.18689659 0.034988072 0.3727414
0.18892749 0.034939442 0.37271017
0.19104846 0.035137743 0.37266016
0.19308411 0.035088986 0.37261644
0.19486392 0.035119191 0.37258521
0.19666472 0.03515273 0.37258521
0.19892281 0.035195272 0.37258521
0.20121334 0.034831211 0.37264767
0.20305437 0.034869853 0.37268937
0.20492391 0.034912761 0.37277266
0.20679945 0.034956116 0.37285599
0.20868115 0.035000082 0.37293932
0.21077187 0.035049174 0.37303156
0.2130836 0.035107762 0.37317887
0.21525118 0.034993865 0.37328514
0.21730234 0.034800004 0.37346011
0.21920788 0.034844108 0.37352261
0.22117536 0.034897413 0.3736788
0.22307582 0.034939617 0.37371007
0.22503923 0.034991063 0.37383506
0.22701009 0.035043027 0.37396005
0.22875667 0.035220459 0.37396005
0.23514879 0.035641357 0.37396005
0.23701574 0.03525487 0.37387669
0.23912017 0.034747653 0.37372789
0.24111605 0.034893539 0.37348095
0.24303913 0.034933813 0.37343928
0.24498273 0.034976527 0.37341842
0.24696107 0.03502379 0.37343928
0.24894704 0.035071608 0.37346008
0.25092691 0.035117995 0.37346008
0.25290269 0.034739561 0.37346011
0.25489798 0.034786582 0.37346011
0.25683677 0.034825474 0.37336636
0.25873944 0.03485902 0.37321013
0.2606923 0.03489903 0.3731164
0.26269656 0.034945391 0.37308514
0.26470906 0.034992434 0.37305388
0.26695335 0.035069354 0.37333512
0.16949353 0.036673866 0.37208524
0.17081842 0.03710632 0.37211648
0.17303886 0.037153095 0.37221023
0.17523676 0.037194155 0.3722415
0.17705469 0.036831852 0.37239775
0.17882062 0.036864888 0.37241855
0.18104212 0.036908295 0.37246019
0.18327008 0.036952373 0.37250188
0.18504129 0.036984786 0.37250188
0.18684827 0.037023798 0.37256435
0.18906395 0.037063412 0.37254351
0.19127548 0.037101597 0.37250188
0.19306694 0.037135947 0.37250188
0.1948631 0.037170734 0.37250188
0.19693205 0.036882237 0.37251019
0.1991102 0.036762211 0.3725352
0.20118994 0.036884859 0.37252271
0.20302533 0.036924466 0.37255394
0.20488328 0.036967602 0.37261644
0.20676437 0.037014358 0.37271017
0.20865181 0.037061539 0.37280393
0.21103059 0.03712311 0.37293932
0.21344289 0.037189551 0.37311637
0.21545473 0.0369929 0.37323514
0.21731491 0.036880147 0.37339759
0.21922064 0.036926586 0.37346008
0.2211823 0.036981747 0.37360594
0.22312661 0.03703342 0.37371007
0.2250405 0.037079331 0.37375173
0.22701161 0.0371341 0.37387672
0.22895391 0.036764864 0.37396005
0.23086283 0.036807872 0.37396005
0.23277825 0.036851414 0.37396005
0.2346807 0.036892373 0.37392879
0.23698069 0.036930803 0.37375173
0.2392551 0.036964804 0.37352258
0.24113862 0.03700145 0.37342888
0.24302831 0.037038717 0.37333512
0.2449857 0.037085801 0.37333512
0.24695049 0.037133474 0.37333512
0.24898532 0.037191104 0.37342888
0.25098675 0.037243053 0.37346011
0.25304744 0.036879357 0.3735851
0.2550441 0.036928948 0.37358508
0.25694856 0.036964674 0.37343928
0.258845 0.036998909 0.37327266
0.2608209 0.037044104 0.37321016
0.2628043 0.037089918 0.37314764
0.26468846 0.036962308 0.37308514
0.26691598 0.036773048 0.37321013
0.17097664 0.038600128 0.37208524
0.17303146 0.038950808 0.37212095
0.17525324 0.038824677 0.37221023
0.17700483 0.0388567 0.37221023
0.17877549 0.038892377 0.37224147
0.1809914 0.038936798 0.37227273
0.18319848 0.038978614 0.37227273
0.1849847 0.039015889 0.37230396
0.18680687 0.039060093 0.37239772
0.18903291 0.039103765 0.37239769
0.1912656 0.039148103 0.37239772
0.19305712 0.039184101 0.37239772
0.19486976 0.039223894 0.37242898
0.19667821 0.03885163 0.37246022
0.19893682 0.038898058 0.37246019
0.20120265 0.038945187 0.37246022
0.20302127 0.038983446 0.37246022
0.2048794 0.039028645 0.37252271
0.2067434 0.03907444 0.37258521
0.20863658 0.039125171 0.37268937
0.21087365 0.038948465 0.37281731
0.21342945 0.038845412 0.37302265
0.2153939 0.03890615 0.37321013
0.21732964 0.038960919 0.37333512
0.21927246 0.039016243 0.37346011
0.22118554 0.039065596 0.37352258
0.2231425 0.039122034 0.37364757
0.2250692 0.039172497 0.37371007
0.22702184 0.03922677 0.37380382
0.22895773 0.038858835 0.37387672
0.23086691 0.038904008 0.37387672
0.23275663 0.038945395 0.37383506
0.23463957 0.038985182 0.37377259
0.2369768 0.039031617 0.37365448
0.23927385 0.039070856 0.37346008
0.24113744 0.039105963 0.37333512
0.24293689 0.038975142 0.37326011
0.24501358 0.038777247 0.37330389
0.24699943 0.038830146 0.37333512
0.24901408 0.038886882 0.37339762
0.25105792 0.038947478 0.37349138
0.25313172 0.039012026 0.37361631
0.25512931 0.03906418 0.37361634
0.25704899 0.039103892 0.37349135
0.25891042 0.039134432 0.37327266
0.26088709 0.039181933 0.37321013
0.26284936 0.039226763 0.3731164
0.26492184 0.039019119 0.37303513
0.2669394 0.03891233 0.37314764
0.17390756 0.040012583 0.37208524
0.17536981 0.04031216 0.37208524
0.17697819 0.040478781 0.37208524
0.1788507 0.040765107 0.37213522
0.18096298 0.040969253 0.37212694
0.1831802 0.041015279 0.37214771
0.18497153 0.041055445 0.3721894
0.18676765 0.041096035 0.3722311
0.189004 0.041143969 0.3722519
0.19114758 0.041024689 0.37226024
0.19302921 0.040818289 0.37227273
0.19485801 0.040863022 0.37233523
0.19667576 0.040904719 0.37236646
0.1989512 0.040956717 0.37239775
0.20121747 0.041006044 0.37239772
0.20303635 0.041046094 0.37239772
0.20489481 0.041093618 0.37246022
0.20672444 0.0411347 0.37246022
0.20861191 0.041186634 0.37255394
0.21110997 0.04094737 0.3727102
0.21342228 0.040916808 0.37291846
0.21535088 0.040973585 0.37304345
0.21731074 0.041035652 0.37321016
0.21924138 0.041091338 0.37331429
0.22117901 0.041147701 0.37341845
0.22313097 0.040788759 0.37355384
0.22509548 0.040847998 0.37367883
0.22701047 0.040897619 0.37371007
0.22893222 0.040947758 0.3737413
0.23084131 0.040995091 0.3737413
0.23273766 0.041039631 0.37371007
0.2346599 0.041088149 0.37371007
0.23696674 0.041131295 0.37354341
0.23927508 0.041174192 0.37336636
0.24111885 0.041207608 0.37321013
0.24315992 0.041007258 0.37321013
0.24501522 0.040886749 0.37321016
0.24698073 0.04093878 0.37321016
0.24899548 0.040998228 0.37327263
0.25104657 0.041062977 0.37337676
0.25309232 0.041126218 0.37346008
0.25509745 0.040757582 0.37349135
0.25706014 0.040805612 0.37342888
0.25894356 0.040840629 0.37324136
0.26087695 0.040883131 0.3731164
0.26281741 0.040926285 0.37299138
0.26483166 0.040980447 0.37296015
0.26689899 0.041042112 0.37299138
0.1836274 0.042658113 0.37208524
0.18511002 0.042962652 0.37208524
0.1867564 0.043137558 0.37211648
0.18900867 0.043191284 0.37216857
0.1913465 0.042999394 0.37221023
0.19304489 0.042871747 0.37221023
0.19485223 0.042913601 0.3722311
0.19668655 0.042960774 0.37229356
0.19895306 0.043013174 0.37230742
0.20121209 0.043063074 0.37229356
0.20305388 0.04310983 0.37233523
0.20488977 0.043154582 0.37235606
0.20674923 0.042790856 0.37242898
0.20906202 0.042848479 0.37246022
0.21143642 0.042917605 0.37258521
0.21337563 0.042980149 0.3727414
0.21528608 0.043036029 0.37283516
0.2172395 0.04309978 0.37299138
0.21916369 0.043156855 0.37308514
0.2211132 0.043218255 0.37321013
0.22308321 0.042865533 0.37337682
0.22502248 0.042922813 0.37346008
0.2269814 0.042983025 0.37356424
0.22889672 0.04303427 0.3735851
0.23083161 0.043088675 0.37362674
0.23274751 0.043138813 0.37362674
0.2346507 0.042766124 0.37361634
0.2369644 0.042812008 0.37346008
0.2392662 0.042855248 0.37327266
0.24115047 0.04289693 0.3731789
0.24304092 0.042939316 0.37308514
0.24499923 0.042993106 0.37308514
0.24700625 0.043054707 0.37314764
0.24897979 0.043109857 0.37314767
0.25098205 0.043169338 0.3731789
0.25301349 0.043233115 0.37324136
0.25503209 0.042869434 0.37329349
0.25695154 0.042912453 0.37316847
0.25886333 0.042953804 0.37302265
0.260811 0.043000627 0.37291849
0.26275125 0.0430458 0.37279353
0.26472831 0.043096382 0.3727102
0.26684698 0.042742372 0.37283516
0.18721382 0.044376798 0.37208524
0.18918177 0.044749316 0.37208524
0.19123833 0.044877704 0.37208524
0.19307876 0.044929646 0.37217897
0.19489199 0.044974655 0.37221023
0.19669387 0.045016386 0.37221023
0.19895333 0.045069337 0.37221023
0.20122007 0.045123085 0.37221023
0.20305645 0.045170486 0.3722415
0.20491552 0.045222282 0.37230396
0.2067519 0.044855654 0.37233523
0.2089441 0.045014977 0.37235084
0.21121088 0.044858281 0.37244233
0.21331966 0.045040641 0.37254354
0.21523578 0.045100328 0.37264767
0.21705091 0.044988923 0.37273517
0.21910085 0.044808101 0.37289765
0.22103161 0.044867896 0.37299138
0.22300664 0.044935782 0.37314767
0.22495182 0.044996861 0.37324136
0.22694209 0.04506607 0.37339759
0.22888289 0.045124732 0.37346011
0.23079221 0.04517642 0.37346011
0.23270805 0.045228761 0.37346011
0.23463047 0.044861849 0.37348092
0.23695964 0.044912569 0.37334901
0.23925285 0.044955909 0.37314764
0.24110366 0.044993173 0.37300181
0.24300076 0.045038611 0.37291846
0.24495901 0.045094792 0.37291849
0.24683149 0.044980858 0.37293515
0.24891116 0.044789001 0.37296015
0.25089204 0.044846818 0.37296015
0.2529231 0.044912815 0.37302262
0.25487721 0.044964556 0.37296015
0.2567957 0.045009471 0.37283516
0.25867778 0.045047551 0.3726477
0.26063153 0.045097627 0.37255394
0.26263687 0.045156088 0.37252271
0.26462817 0.045211554 0.37246022
0.26683554 0.044875931 0.3727102
0.19126895 0.04611408 0.37208524
0.19316787 0.0468182 0.37208524
0.19491225 0.047031831 0.37214771
0.1967255 0.047077928 0.37216854
0.19900785 0.047138441 0.37221023
0.20126416 0.046779975 0.37221023
0.20308404 0.04682507 0.37221023
0.20490909 0.046870749 0.37221023
0.20675683 0.046920914 0.37224147
0.20888153 0.047060445 0.37226021
0.21111643 0.046957437 0.37231022
0.21331358 0.047111254 0.37242898
0.21518779 0.047164254 0.37246022
0.21717949 0.04697495 0.3725352
0.21899106 0.046864141 0.37260604
0.22093962 0.046930384 0.372731
0.22290801 0.046999928 0.37287679
0.22489654 0.047072779 0.37304345
0.22686762 0.04714112 0.3731685
0.2288202 0.046786215 0.37327263
0.23078719 0.046851441 0.37336636
0.23272267 0.046909444 0.37339762
0.23489818 0.047049291 0.37333512
0.23713049 0.046931177 0.37321013
0.23924217 0.047057047 0.37302262
0.24108641 0.047094468 0.37286639
0.2429565 0.047136545 0.3727414
0.24489422 0.04719121 0.37271017
0.24696589 0.047001585 0.37273517
0.2488178 0.04688501 0.3727102
0.25079826 0.046945307 0.37271014
0.25278649 0.047006372 0.37271014
0.25471148 0.04705504 0.37260604
0.25683436 0.047228064 0.37246022
0.25884598 0.046817403 0.37236023
0.26102561 0.046794958 0.37230399
0.26270279 0.046704471 0.37229356
0.26455939 0.0469044 0.37227273
0.26698422 0.047037508 0.37280393
0.19508077 0.04895607 0.37208524
0.19673716 0.049135298 0.37208524
0.19899762 0.049192648 0.37208524
0.2012763 0.048841685 0.37212691
0.20310791 0.048891332 0.37214777
0.20494485 0.048941586 0.37216857
0.20677572 0.048989717 0.37216857
0.20895419 0.049047016 0.37216336
0.21120243 0.049113002 0.37221023
0.21316704 0.049002461 0.37223524
0.21516567 0.048818421 0.37233523
0.21706423 0.048877783 0.37239772
0.21896926 0.04893795 0.37246022
0.22086236 0.048994582 0.37249145
0.22285527 0.049072493 0.37267891
0.22481853 0.049142897 0.37280393
0.22680828 0.049218178 0.37296015
0.22878589 0.048871279 0.37310597
0.23073347 0.048935145 0.37316847
0.23267536 0.048997045 0.37321016
0.23478639 0.049176402 0.3731744
0.23704928 0.049007718 0.37308514
0.23915562 0.048991106 0.37293515
0.24106404 0.048773576 0.3727414
0.24295463 0.048821054 0.37264767
0.24487205 0.048873458 0.37258521
0.24681684 0.048930593 0.37255394
0.24876899 0.04898848 0.37252271
0.25070739 0.049043138 0.37246022
0.25269523 0.049106717 0.37246022
0.25466964 0.049166944 0.37242898
0.25682721 0.049298596 0.37221023
0.25915453 0.048715208 0.37216857
0.26130953 0.04863891 0.37212691
0.26297879 0.048123013 0.37212691
0.26504713 0.04862196 0.37214774
0.26698488 0.048746794 0.3727102
0.19677162 0.05037684 0.37208524
0.19904459 0.050850019 0.37208524
0.20131309 0.05091003 0.37208524
0.20313385 0.050958768 0.37208524
0.20495984 0.051008139 0.37208524
0.20679107 0.051058136 0.37208524
0.20890129 0.051033109 0.37208524
0.21113276 0.05126496 0.37211022
0.21339974 0.051007558 0.37221023
0.21515842 0.050890565 0.37221023
0.21702071 0.050943796 0.37221023
0.21891342 0.051003322 0.3722519
0.22084957 0.051072169 0.37235606
0.22279286 0.051141839 0.37246022
0.22479826 0.050807469 0.37267894
0.22676913 0.050880861 0.37280393
0.22874767 0.05095502 0.37292892
0.23071457 0.051025618 0.37302265
0.23263063 0.051084183 0.37302262
0.23502231 0.051155627 0.37300178
0.23739058 0.051221002 0.37292892
0.23930974 0.051007651 0.37276015
0.24107927 0.050881188 0.37264767
0.2429499 0.050926302 0.37252271
0.24486762 0.050980791 0.37246022
0.2468335 0.051044524 0.37246022
0.2487791 0.051103245 0.37241855
0.25063175 0.050990116 0.3723852
0.25267541 0.050796524 0.37233523
0.25464997 0.050858669 0.37230396
0.25687 0.05083435 0.37218526
0.25802723 0.051374923 0.37208524
0.26761493 0.050923597 0.37275186
0.20694175 0.052975517 0.37208524
0.20867942 0.052775167 0.37208524
0.21099584 0.052844346 0.37210608
0.21336831 0.052926324 0.37221023
0.2152257 0.052980892 0.37221023
0.21708888 0.053036164 0.37221023
0.21895793 0.053092137 0.37221023
0.22083296 0.053148821 0.37221023
0.22277018 0.053219594 0.37230396
0.22475028 0.052882511 0.37248108
0.22673379 0.052961629 0.37262687
0.22871232 0.05303875 0.37275183
0.23068573 0.053113516 0.37285599
0.23265147 0.052766364 0.37296015
0.23485127 0.052917916 0.37293515
0.23709932 0.052808773 0.37283516
0.23923209 0.052943714 0.37267894
0.24105684 0.052980874 0.37249148
0.24296837 0.053036563 0.37242898
0.24488655 0.053093053 0.37236646
0.24683228 0.053154834 0.37233523
0.24876431 0.053212862 0.37227273
0.25085983 0.053033508 0.37231022
0.2527597 0.052931342 0.37233523
0.25471386 0.052991521 0.37227273
0.25663245 0.05304363 0.37214771
0.25809744 0.053087756 0.37208524
0.26749688 0.053038806 0.37246022
0.20692165 0.055222634 0.37208524
0.20875807 0.05486311 0.37210608
0.21064891 0.054930206 0.3721894
0.21297403 0.055002775 0.37221023
0.21530779 0.055076495 0.37223104
0.21717189 0.055133808 0.37223104
0.21901509 0.054769188 0.37221023
0.22089083 0.054827549 0.37221023
0.22279143 0.054891232 0.37224147
0.22477396 0.054974202 0.37239772
0.22672623 0.055048674 0.37249148
0.22872427 0.055133261 0.37264767
0.2306723 0.055204764 0.37271017
0.23262496 0.054857031 0.37279353
0.2349263 0.054936353 0.37281954
0.23720835 0.055003103 0.3727459
0.23929286 0.055061001 0.37264773
0.24111851 0.055099498 0.37246022
0.2428855 0.054974515 0.37233523
0.24493282 0.054790176 0.37233523
0.24683768 0.054844536 0.3722415
0.24879096 0.054909006 0.37221023
0.25077266 0.054978915 0.37221023
0.25280461 0.055058882 0.37227273
0.25475961 0.055121388 0.37221023
0.25672191 0.055184703 0.37214774
0.2582061 0.055659223 0.37208524
0.26766244 0.054782674 0.37258521
0.20697656 0.056890693 0.37208524
0.20886821 0.056961112 0.372179
0.21073078 0.057022627 0.37221023
0.21261713 0.057089787 0.37227273
0.21497522 0.057172287 0.37233523
0.21732423 0.057251204 0.37236646
0.21913804 0.056880277 0.37229356
0.22099042 0.056934386 0.3722519
0.22288595 0.056998834 0.37227273
0.22482555 0.057073593 0.37235606
0.22668362 0.056980409 0.37246022
0.22872946 0.05680795 0.37255394
0.23071656 0.056891061 0.37267894
0.23265302 0.056960739 0.37271017
0.23457691 0.057026438 0.37271017
0.23699172 0.057109762 0.3727102
0.23931636 0.057170331 0.37255394
0.24120319 0.057224587 0.37246022
0.24316326 0.05702297 0.37233523
0.244978 0.056909632 0.37227273
0.24690445 0.056970786 0.37221023
0.24887954 0.057042364 0.37221023
0.25086233 0.057114854 0.37221023
0.25283444 0.0567603 0.37221023
0.2548328 0.056834102 0.37221023
0.25679603 0.056899272 0.37214774
0.25826246 0.056946337 0.37208524
0.26773053 0.056935981 0.37254354
0.20705907 0.058981091 0.37210608
0.20895751 0.059055552 0.37221023
0.21085076 0.059127584 0.37229356
0.21271154 0.058774568 0.37233523
0.21462329 0.058849297 0.37242898
0.21697259 0.0589302 0.37246022
0.2192941 0.059002426 0.37242898
0.22115433 0.059060134 0.37239772
0.22303908 0.059123561 0.37239772
0.22496775 0.059197653 0.37246022
0.2269506 0.05901261 0.37246022
0.22877853 0.058912519 0.37250185
0.23074056 0.058992043 0.37258521
0.23271023 0.059072349 0.3726685
0.23455779 0.0589738 0.37271017
0.23685363 0.058882475 0.37268519
0.23909457 0.058776122 0.3725602
0.24125293 0.058921389 0.37242895
0.2431467 0.058978025 0.37233523
0.24502623 0.059030529 0.37221023
0.24699484 0.059103746 0.37221023
0.24892926 0.059167884 0.37214774
0.25093397 0.059247959 0.372179
0.25292787 0.058900725 0.37221023
0.2549274 0.058977176 0.37221023
0.25675762 0.058863033 0.37211025
0.26772714 0.059074651 0.37239772
0.20715547 0.061077099 0.37214774
0.20903163 0.06114731 0.37221023
0.21094939 0.061228588 0.37233523
0.21281111 0.060877483 0.37237689
0.21471797 0.060953081 0.37246022
0.21692967 0.060922522 0.37246019
0.2191954 0.061224781 0.37246019
0.22125533 0.060754705 0.37246022
0.22314121 0.060819872 0.37246022
0.22503328 0.060885862 0.37246022
0.22693171 0.060952704 0.37246022
0.22883651 0.061020393 0.37246022
0.23076726 0.061094042 0.37249145
0.23274395 0.061178893 0.37258521
0.23478675 0.06100608 0.37263519
0.23679648 0.061024584 0.37258524
0.23906574 0.060868017 0.37249148
0.24129605 0.061038684 0.37235606
0.24318372 0.061095487 0.3722519
0.245013 0.060988951 0.37221023
0.2470073 0.060796548 0.37211651
0.24896309 0.06086766 0.37208524
0.25094736 0.060944796 0.37208524
0.2529819 0.061033085 0.37214774
0.25496089 0.061107107 0.37211648
0.25642455 0.060732365 0.37208524
0.26767612 0.060774729 0.37221023
0.20712607 0.062996238 0.37213522
0.20909277 0.062822402 0.37221023
0.21097592 0.062895209 0.37227273
0.21286534 0.062968992 0.37233523
0.21472502 0.063032947 0.37233523
0.21662685 0.063108258 0.37239772
0.21896768 0.063190468 0.37239775
0.22128819 0.062848635 0.37237689
0.22321217 0.062926568 0.37243938
0.22511779 0.062998332 0.37246022
0.22701727 0.063067399 0.37246022
0.22882065 0.06296432 0.37246022
0.23081778 0.062784076 0.37246022
0.23277579 0.062865905 0.37252271
0.23474105 0.062948659 0.37258521
0.23663443 0.063011222 0.37252271
0.23899381 0.063086331 0.37241855
0.24131502 0.063150361 0.3722415
0.24325092 0.063221462 0.37221023
0.24513325 0.062855609 0.37211648
0.2465505 0.062053837 0.37208524
0.25299895 0.062309287 0.37208524
0.25449857 0.062369689 0.37208524
0.26789713 0.062537685 0.37239772
0.26818809 0.063891448 0.37271017
0.20735689 0.065003835 0.37208524
0.20914805 0.064911097 0.37216854
0.21102025 0.064982779 0.37221023
0.21287465 0.065047942 0.37221023
0.21473478 0.065113947 0.37221023
0.21660201 0.064765096 0.3722415
0.21897358 0.064858444 0.37229356
0.22134832 0.06495133 0.37233523
0.22327322 0.06503173 0.37239772
0.22520487 0.06511306 0.37246022
0.22710545 0.06518437 0.37246022
0.22909717 0.065005757 0.37246022
0.23092079 0.064908959 0.37248108
0.23290603 0.065000691 0.37258521
0.23483348 0.065075271 0.37258521
0.23663144 0.064967826 0.3725352
0.2388657 0.064696468 0.37241024
0.24109897 0.064929225 0.37223524
0.24326746 0.064913169 0.37211648
0.24469911 0.064539656 0.37208524
0.26812077 0.06516102 0.37252271
0.20778252 0.066525564 0.37208524
0.20918226 0.066994257 0.37208524
0.21103147 0.067060582 0.37208524
0.2128863 0.067127764 0.37208524
0.21474685 0.06719581 0.37208524
0.21663241 0.066854566 0.37214771
0.21900275 0.066950299 0.37219635
0.22141135 0.067056052 0.37229356
0.22325277 0.066971332 0.3723852
0.22527662 0.066806696 0.37246022
0.22717813 0.066879809 0.37246022
0.22908609 0.066953853 0.37246022
0.23107815 0.067051351 0.37258521
0.23300003 0.067127325 0.37258521
0.23490891 0.067198589 0.37255394
0.23686996 0.067007706 0.37246022
0.23882964 0.066775754 0.3723352
0.24095924 0.066959605 0.37217453
0.24281651 0.066169366 0.37208524
0.2678746 0.066385716 0.37208524
0.21715096 0.068969056 0.37208524
0.2185566 0.069022804 0.37208524
0.22098105 0.069136776 0.37221023
0.2235146 0.069006279 0.3723602
0.22536892 0.068926178 0.37246022
0.22727162 0.069001548 0.37246022
0.22919363 0.069081709 0.37248102
0.23105478 0.068999507 0.3725602
0.23307744 0.06883058 0.37258521
0.23494789 0.068892062 0.37249148
0.23684421 0.068960331 0.37242898
0.23866674 0.069006428 0.3722415
0.24037206 0.068917625 0.37212691
0.21909872 0.070731178 0.37208524
0.22084793 0.070732459 0.37218526
0.22318144 0.071011432 0.37228522
0.22542611 0.071036212 0.37239772
0.22736779 0.071125783 0.37246022
0.22927816 0.071204431 0.37246022
0.23127922 0.071032479 0.37246022
0.23311174 0.07094229 0.37248102
0.23501582 0.071015589 0.37243938
0.23688662 0.07107792 0.37233523
0.23873669 0.071133398 0.3721894
