# .PCD v0.7 - Point Cloud Data file format
VERSION 0.7
FIELDS x y z
SIZE 4 4 4
TYPE F F F
COUNT 1 1 1
WIDTH 1361
HEIGHT 1
VIEWPOINT 0 0 0 1 0 0 0
POINTS 1361
DATA ascii
-0.25255439 0.19324635 0.3658776
-0.25111806 0.19317567 0.36577344
-0.24937113 0.19282879 0.36549222
-0.24730848 0.1930026 0.36539847
-0.24487707 0.1928812 0.36474228
0.121303 0.19204734 0.36521098
0.12298146 0.1921124 0.36512765
0.1250823 0.19219598 0.36502349
0.1268163 0.19234173 0.36508599
0.1289321 0.19244151 0.36500266
0.13108882 0.19259888 0.36502349
0.1328347 0.19275117 0.36508599
0.13520715 0.19264281 0.36526099
0.13726769 0.1927992 0.36546096
0.13900423 0.1929249 0.36546096
0.14074427 0.19305256 0.36546096
0.1429245 0.19321501 0.36546096
0.14510991 0.19296594 0.36554429
0.14688307 0.19271241 0.36567971
0.14867775 0.19289771 0.36577344
0.15050277 0.19311801 0.36592966
0.19145916 0.19357163 0.3659609
0.19278127 0.19320962 0.36589837
0.1949275 0.19307098 0.3655681
0.19716968 0.19305189 0.36521098
0.19883811 0.19295011 0.36502349
0.20105127 0.19305414 0.36475268
0.20327738 0.19274536 0.36458606
0.20510855 0.19288249 0.36446106
0.20689155 0.19297257 0.36424232
0.20856123 0.19294523 0.36412776
-0.25088489 0.19463721 0.3658984
-0.24894464 0.19494307 0.36571094
-0.24738491 0.19491337 0.36537763
-0.24505267 0.19475284 0.36461729
0.1469721 0.19407374 0.36564845
0.14875537 0.19424409 0.36571094
0.15104483 0.19452931 0.36591923
0.18978043 0.19526567 0.3659609
0.19111688 0.19491921 0.36592966
0.19283897 0.19495876 0.36564845
0.19497208 0.19498789 0.36525264
0.19709778 0.19500928 0.36483604
0.19886379 0.19509023 0.36461729
0.20066792 0.19520721 0.36446106
0.20303182 0.19503617 0.36430484
0.20510955 0.19491288 0.36421108
0.20685814 0.19462787 0.36412776
-0.24893546 0.19661497 0.36587754
-0.24721789 0.19718342 0.36514848
-0.24564962 0.19705378 0.36425272
0.18962629 0.19680543 0.36596093
0.19122466 0.19672123 0.36577344
0.19294837 0.19676176 0.36549219
0.19503337 0.19674142 0.36500266
0.19716065 0.19676365 0.36458606
0.1989108 0.19682917 0.36433607
0.20053561 0.19676726 0.36416945
0.20250906 0.19662875 0.36408609
0.20573601 0.19604495 0.36408609
-0.24885386 0.19866957 0.36583591
-0.24698265 0.19911055 0.3648777
-0.24499531 0.19982535 0.36421108
0.18913043 0.19800152 0.3659609
0.19091171 0.19810219 0.36579427
0.19304438 0.19812942 0.36539847
0.19513662 0.19811518 0.36491933
0.19720925 0.19808161 0.36439857
0.19896033 0.19814804 0.36414859
-0.24821082 0.20190573 0.36571094
-0.24711859 0.20090546 0.36525264
-0.2446866 0.20120186 0.36450276
-0.24833415 0.20331675 0.36558595
-0.24695849 0.20289993 0.36508599
-0.24526739 0.20301214 0.36477351
-0.24329074 0.20326631 0.36450276
-0.24143328 0.2032049 0.36421108
-0.24845922 0.20473057 0.36546096
-0.24708234 0.20431042 0.364961
-0.24596328 0.20410131 0.36483604
0.239822 -0.21248361 0.36752325
0.24073923 -0.21256986 0.36646086
0.24097066 -0.21103609 0.36723161
0.24210572 -0.21044849 0.36671084
0.24169254 -0.20954551 0.36796069
0.24303496 -0.20894599 0.36692506
0.24461296 -0.20818101 0.36633587
0.24298781 -0.20737605 0.36779404
0.24481086 -0.20704664 0.36693993
0.24677466 -0.20683813 0.36629423
0.24398489 -0.20404655 0.36796069
0.2449766 -0.20503089 0.36747637
0.24693453 -0.20525797 0.36664835
0.24819797 -0.20521876 0.36621088
0.24542034 -0.20287015 0.36779404
0.24690425 -0.20306182 0.36710665
0.24879764 -0.20290366 0.36653227
0.24711549 -0.20108895 0.36762738
0.24871635 -0.20094264 0.36721078
0.25039539 -0.20088692 0.36661708
0.24746501 -0.19968812 0.36796069
0.24906854 -0.19913767 0.36735657
0.25097591 -0.19891754 0.36633587
0.24928491 -0.19719672 0.36758575
0.25065577 -0.19690086 0.36654416
0.25110865 -0.19522239 0.36721078
0.25209033 -0.19442914 0.36664832
0.25160205 -0.19299039 0.3678357
0.25226995 -0.19275504 0.36675251
0.25173771 -0.19102585 0.36764824
0.252417 -0.19114721 0.36664835
0.25196183 -0.1891315 0.36758572
0.25283501 -0.18880671 0.36658585
0.25323224 -0.18686736 0.36708578
0.25441581 -0.18495506 0.36705452
0.25513902 -0.18302666 0.36710659
0.2563248 -0.18201369 0.36621088
0.25594279 -0.18149582 0.36733577
0.25682572 -0.18086219 0.36691079
0.25758952 -0.17920068 0.36755449
0.25860292 -0.17878066 0.36680457
0.25940341 -0.17732474 0.36713576
0.26052579 -0.17659387 0.36661711
0.25972027 -0.17563546 0.36796069
0.26114178 -0.17498542 0.36708578
0.27529576 -0.17579676 0.36608589
0.261406 -0.17386295 0.36771071
0.26269698 -0.17286183 0.36715722
0.27487102 -0.17204367 0.36621088
0.26356849 -0.17102179 0.36743575
0.26464856 -0.17074654 0.36652333
0.27394485 -0.17114247 0.36658585
0.27529863 -0.17103989 0.36754405
-0.26042068 -0.16899647 0.36758572
0.2634114 -0.16898526 0.36774194
0.26493832 -0.16884679 0.36692956
0.26603571 -0.1682813 0.36633587
0.27419215 -0.1691193 0.36733577
0.263818 -0.16723503 0.3678982
0.26486146 -0.16706809 0.36714828
0.26674852 -0.16690816 0.36641082
0.27099609 -0.16605869 0.36633587
0.27226606 -0.1667347 0.36652333
0.27413213 -0.16734025 0.36758572
0.26369023 -0.16585609 0.36796069
0.26485828 -0.1649038 0.36754408
0.26710874 -0.16511822 0.36674652
0.26938501 -0.16500734 0.36648169
0.27100205 -0.16476265 0.36658585
0.27253553 -0.16516265 0.36721078
-0.26106381 -0.16291592 0.36758575
0.26536837 -0.16321979 0.3678357
0.26692984 -0.16306686 0.36727327
0.26935267 -0.1628242 0.3668358
0.27085871 -0.16294333 0.36671081
0.27248332 -0.16339418 0.36746076
-0.26119271 -0.16109288 0.36758575
0.26725718 -0.1615773 0.3678357
0.26897332 -0.16112727 0.36735657
0.27104157 -0.16132008 0.36727327
0.27216041 -0.16103199 0.36741909
-0.26060545 -0.15947448 0.36750236
-0.25929403 -0.1588051 0.36771071
0.26879248 -0.15960555 0.36787736
0.27053297 -0.15954405 0.36761698
-0.26026371 -0.15757766 0.3678357
-0.25908396 -0.15695775 0.36771071
-0.25747234 -0.15719613 0.36755449
-0.25550929 -0.1566231 0.36777321
-0.25741059 -0.15518215 0.36702329
-0.25496638 -0.15517232 0.36639836
-0.25327155 -0.1547941 0.36750242
-0.25703877 -0.15367426 0.36671081
-0.25530863 -0.15224417 0.36741909
-0.25290594 -0.15314673 0.36721078
-0.25360078 -0.15196814 0.36796069
-0.26239601 -0.14008464 0.36771071
-0.26153791 -0.14008717 0.36796069
-0.26239127 -0.13879772 0.3678982
-0.26144588 -0.13918193 0.36796069
-0.26120314 -0.13668932 0.36721078
-0.26039761 -0.13521391 0.36699206
-0.25945216 -0.13453916 0.36796069
-0.25740004 -0.13436615 0.36796069
-0.23897679 -0.13464215 0.36796069
-0.23700845 -0.13448888 0.36796069
-0.23504651 -0.13433732 0.36796069
-0.2609182 -0.13291198 0.36688581
-0.25925636 -0.13315818 0.36786693
-0.25727206 -0.13302124 0.36796069
-0.25573981 -0.13289452 0.36796069
-0.24469236 -0.13244712 0.36796069
-0.24300499 -0.13258295 0.36787736
-0.24121158 -0.13301735 0.36783573
-0.23925345 -0.13329494 0.36780447
-0.23726475 -0.13313164 0.36777321
-0.23534395 -0.13300428 0.3678357
-0.23362012 -0.13276671 0.36796069
-0.22288468 -0.13255963 0.36796069
-0.22100991 -0.13286099 0.36796069
-0.21907386 -0.13228905 0.36796069
-0.26108748 -0.13129188 0.36706495
-0.25906381 -0.1313545 0.3678357
-0.25710377 -0.13123107 0.36796069
-0.25522038 -0.13093026 0.36796069
-0.25080213 -0.13056375 0.36791906
-0.24893971 -0.13097389 0.36781487
-0.24698801 -0.13126715 0.3678357
-0.24497001 -0.13109961 0.36780447
-0.24289843 -0.13090079 0.36767945
-0.24089758 -0.13073751 0.36764821
-0.23894918 -0.13102144 0.36762738
-0.23710227 -0.13105924 0.36763573
-0.23511639 -0.13119557 0.36771071
-0.23328426 -0.13111693 0.36789823
-0.23186444 -0.13103124 0.36796069
-0.22988971 -0.13045001 0.36796069
-0.22654824 -0.13064471 0.36796069
-0.22489066 -0.13076422 0.36788574
-0.222688 -0.13119116 0.36780447
-0.22074392 -0.13103445 0.36774197
-0.2189 -0.13093524 0.3678357
-0.21755299 -0.13088125 0.36796069
-0.2610184 -0.12918082 0.36707014
-0.25897628 -0.12903716 0.36752322
-0.25704834 -0.12893099 0.36768988
-0.25479293 -0.12922673 0.36780447
-0.25278693 -0.12907697 0.3678357
-0.25066137 -0.12886344 0.36767945
-0.24879636 -0.12884928 0.36762738
-0.24695869 -0.12898809 0.36758575
-0.24467045 -0.12925132 0.36758572
-0.24280725 -0.12923004 0.36750242
-0.24088094 -0.12882288 0.36741078
-0.2386556 -0.12875867 0.36746076
-0.23664992 -0.12888724 0.36751074
-0.23489535 -0.12897436 0.36764821
-0.23312978 -0.12905392 0.36776072
-0.2317225 -0.12927431 0.36796069
-0.22878437 -0.12862734 0.36796069
-0.22733472 -0.12894051 0.36789823
-0.22529843 -0.12873925 0.36771071
-0.22322334 -0.12915218 0.36771074
-0.22103395 -0.1290143 0.36768988
-0.21871363 -0.12915976 0.36774197
-0.21695131 -0.12910783 0.36796069
-0.2611962 -0.12687548 0.36708578
-0.25907546 -0.12688848 0.36741075
-0.25689763 -0.12687212 0.36749202
-0.25506017 -0.1269515 0.36750242
-0.25322855 -0.12710221 0.36750242
-0.25138393 -0.12710282 0.36749199
-0.24933065 -0.12692645 0.36742949
-0.2472443 -0.12673068 0.3673045
-0.2452817 -0.12701772 0.36729407
-0.24331917 -0.12730138 0.36727327
-0.2413 -0.12713176 0.36721078
-0.2391077 -0.12708664 0.36731076
-0.23682097 -0.1267819 0.36743575
-0.23469794 -0.12676959 0.36761698
-0.23278287 -0.12694417 0.36778575
-0.23105116 -0.12704147 0.36793986
-0.22924082 -0.12709372 0.36796069
-0.2271222 -0.12714925 0.36777321
-0.22516495 -0.12699437 0.36771071
-0.22319639 -0.12683061 0.36761695
-0.22100113 -0.12711053 0.36760655
-0.21898702 -0.12699538 0.36767498
-0.21694443 -0.12680124 0.36788926
-0.21537937 -0.12684265 0.36796069
-0.2608771 -0.12502052 0.36686707
-0.25902769 -0.12495533 0.36714828
-0.25707471 -0.1248388 0.36727327
-0.2550424 -0.1246819 0.36727327
-0.25312909 -0.12500508 0.3673774
-0.25116533 -0.12530042 0.36739826
-0.24905109 -0.12509507 0.36724201
-0.24694686 -0.12489193 0.36708578
-0.24483155 -0.12468024 0.3668983
-0.2429145 -0.12498784 0.36693999
-0.24103126 -0.12530997 0.36702329
-0.23914567 -0.12520921 0.36714828
-0.23726638 -0.12511022 0.36727327
-0.23495968 -0.1250069 0.36748159
-0.23269421 -0.12492381 0.36774194
-0.23081592 -0.12482037 0.3678357
-0.22880897 -0.1249419 0.3678357
-0.22695632 -0.12496971 0.36777321
-0.22503373 -0.12525272 0.36771071
-0.22306694 -0.12509155 0.36761695
-0.22116414 -0.12496408 0.36761695
-0.21932398 -0.12487021 0.36771071
-0.21704857 -0.12476486 0.36785653
-0.21486881 -0.12491347 0.36796069
-0.26071286 -0.12346449 0.36608589
-0.25915933 -0.12311892 0.36653584
-0.25689188 -0.12284626 0.3668108
-0.25467092 -0.12280758 0.36696079
-0.2527371 -0.12269737 0.36708578
-0.25080544 -0.12300914 0.36714828
-0.24873202 -0.12324789 0.36699203
-0.24661008 -0.12303766 0.36680454
-0.24471019 -0.12300507 0.36666918
-0.24301445 -0.12272179 0.36661708
-0.24086021 -0.12290991 0.36672869
-0.23882048 -0.12294339 0.36691913
-0.23706651 -0.12332878 0.36717954
-0.2352158 -0.12324402 0.36733577
-0.23313022 -0.12325098 0.36756074
-0.23087201 -0.1229585 0.36768574
-0.22867629 -0.12290306 0.36771071
-0.22675523 -0.12277371 0.36771071
-0.22487296 -0.1230802 0.36771071
-0.2229652 -0.12295375 0.36771071
-0.22109504 -0.12326188 0.36771071
-0.2192001 -0.12313827 0.36771071
-0.21693905 -0.1230419 0.36787736
-0.21463676 -0.12291996 0.36796069
-0.21320112 -0.12240009 0.36796069
-0.25851747 -0.12111725 0.36614838
-0.25721142 -0.12110522 0.36646086
-0.25533563 -0.12102521 0.36667958
-0.25312811 -0.12099218 0.3668358
-0.25120187 -0.12060559 0.36679414
-0.24920854 -0.12083058 0.36666083
-0.24729185 -0.1212717 0.36655462
-0.24522078 -0.12108669 0.36642963
-0.24322134 -0.12093475 0.36639833
-0.24127126 -0.12080523 0.36642963
-0.23913975 -0.12079368 0.36661083
-0.23691955 -0.12094667 0.36690721
-0.23491405 -0.12099517 0.36712745
-0.23310544 -0.12093126 0.36733577
-0.23117577 -0.12115475 0.36756492
-0.22881386 -0.1210888 0.36768571
-0.22662787 -0.12103758 0.36771071
-0.22471544 -0.12091219 0.36771071
-0.22280976 -0.12078848 0.36771071
-0.22094125 -0.12109867 0.36771071
-0.21904843 -0.12097775 0.36771071
-0.21731225 -0.12106152 0.36778572
-0.21495177 -0.12120385 0.3678982
-0.21311399 -0.12110798 0.36796069
-0.256928 -0.11928084 0.36627337
-0.25512046 -0.11923308 0.36658582
-0.25318873 -0.11912608 0.36671081
-0.25109291 -0.11893997 0.36658582
-0.24898559 -0.11874565 0.36642963
-0.24696577 -0.11901096 0.36633587
-0.24495403 -0.11927652 0.36624211
-0.24295746 -0.1191272 0.36621088
-0.24105141 -0.11902046 0.36630464
-0.23919295 -0.11893567 0.36646086
-0.23706672 -0.11892581 0.36663583
-0.23489538 -0.1186832 0.36691079
-0.23286337 -0.118718 0.36721078
-0.23101144 -0.11892484 0.36746073
-0.22923338 -0.1189983 0.36752322
-0.22746055 -0.11907271 0.36758572
-0.22499289 -0.11917147 0.36758569
-0.22265014 -0.11903957 0.36764821
-0.22079061 -0.11893984 0.36771071
-0.21889979 -0.11882155 0.36771071
-0.21693873 -0.11895726 0.36771071
-0.21519049 -0.11903328 0.3677524
-0.21305016 -0.11904742 0.36788258
-0.21198153 -0.11804332 0.36796069
-0.25616279 -0.11701246 0.36616921
-0.25474867 -0.11694974 0.36631504
-0.25282782 -0.11727011 0.36639833
-0.25082117 -0.1171272 0.36639833
-0.24875934 -0.11695622 0.36630464
-0.24670668 -0.11678719 0.36621088
-0.24470448 -0.1170591 0.36612758
-0.24273157 -0.11692318 0.36612758
-0.24087515 -0.11725993 0.36624211
-0.23901869 -0.11717683 0.36639833
-0.23712789 -0.11707553 0.36649209
-0.23507103 -0.11709913 0.36676079
-0.23294041 -0.1168763 0.36708575
-0.2308647 -0.11688805 0.36730453
-0.22899972 -0.11679401 0.36739826
-0.22701308 -0.11692877 0.36741075
-0.22522835 -0.11699576 0.3674399
-0.22322385 -0.11717337 0.36750242
-0.22086067 -0.11709984 0.36756071
-0.21874619 -0.11708016 0.36764821
-0.21688205 -0.11697544 0.36767945
-0.21502399 -0.11687228 0.36771071
-0.21318987 -0.11678058 0.36777323
-0.21143317 -0.11673 0.36796069
-0.2560465 -0.11527109 0.36621088
-0.25500119 -0.11476164 0.36621088
-0.25300574 -0.11504973 0.36618587
-0.25101766 -0.11491755 0.36621088
-0.24857816 -0.11519063 0.36624211
-0.24656978 -0.11504427 0.36621088
-0.24468292 -0.11502627 0.36608589
-0.2428256 -0.11467042 0.36608589
-0.24068926 -0.11507917 0.36621091
-0.23881482 -0.11498838 0.36633587
-0.23694663 -0.11489925 0.36646083
-0.23515595 -0.1152637 0.36664832
-0.23311886 -0.11529615 0.36693579
-0.23091778 -0.11503772 0.36713579
-0.22876094 -0.11500755 0.36721078
-0.22684662 -0.11488755 0.36721078
-0.22497743 -0.11478877 0.36727327
-0.22305195 -0.11495151 0.36736077
-0.22131108 -0.11503834 0.36743996
-0.21910679 -0.11502636 0.36749199
-0.21669556 -0.11521973 0.36755449
-0.21487609 -0.11513803 0.36764818
-0.21306199 -0.1150579 0.36774197
-0.21132477 -0.11501815 0.36796069
-0.20990393 -0.1145107 0.36796069
-0.25480774 -0.11341067 0.36608589
-0.25316599 -0.1130295 0.36616921
-0.25130251 -0.11275167 0.36614841
-0.24938262 -0.11307082 0.36621091
-0.24739368 -0.11293647 0.36621091
-0.24542487 -0.11322828 0.36617965
-0.24338943 -0.11306797 0.36608589
-0.24098992 -0.112932 0.36616921
-0.238655 -0.11282417 0.36633587
-0.2367889 -0.11273722 0.36646086
-0.23499982 -0.11310285 0.36664832
-0.23318483 -0.11303797 0.36683583
-0.23114941 -0.11307098 0.36697865
-0.2290359 -0.11299422 0.36710659
-0.22668993 -0.11314662 0.36714828
-0.22478436 -0.11303041 0.36714828
-0.22292346 -0.1129349 0.36721078
-0.2210685 -0.11284103 0.36727327
-0.21925674 -0.11276778 0.36739826
-0.21710487 -0.1131959 0.36747637
-0.21488573 -0.11286392 0.36756787
-0.21290956 -0.11291122 0.36771071
-0.21115619 -0.11286313 0.36789823
-0.20982519 -0.11323031 0.36796069
-0.25115806 -0.11142615 0.36608589
-0.24917285 -0.11087725 0.36614838
-0.24718648 -0.110746 0.36614838
-0.24521269 -0.11103726 0.36610672
-0.24322833 -0.11090257 0.36608589
-0.24137957 -0.11124593 0.36621088
-0.2389905 -0.11111458 0.36629423
-0.23660487 -0.11098251 0.3663671
-0.23474698 -0.11089888 0.36649209
-0.23293473 -0.11083566 0.36667958
-0.231049 -0.1107362 0.36674204
-0.22911091 -0.1108997 0.36683577
-0.22716533 -0.11109891 0.36692509
-0.22501165 -0.11099958 0.36696079
-0.22271577 -0.11117287 0.36705455
-0.22090073 -0.11109969 0.36717951
-0.21905363 -0.11100903 0.36724204
-0.21724921 -0.1109387 0.36736703
-0.21498883 -0.11084648 0.36750242
-0.21277809 -0.11077826 0.36771071
-0.21100853 -0.11072214 0.36786693
-0.20923336 -0.11107416 0.36796069
-0.24686085 -0.10912737 0.36608589
-0.24503897 -0.10886662 0.36608589
-0.2430914 -0.1087506 0.36611715
-0.2412235 -0.10908628 0.36621091
-0.23931056 -0.10898232 0.3662734
-0.23723572 -0.10914431 0.36629423
-0.23499072 -0.10915121 0.36630464
-0.2329134 -0.10895987 0.36638585
-0.23083416 -0.10897164 0.36658582
-0.22897676 -0.10888489 0.36667955
-0.22708662 -0.1087811 0.36671081
-0.22518215 -0.10895786 0.3668358
-0.22310986 -0.10914276 0.36694518
-0.22087039 -0.10880877 0.36703223
-0.21900526 -0.10904099 0.36721078
-0.21708739 -0.10920411 0.36727327
-0.21506631 -0.1092322 0.36748576
-0.21293485 -0.1089977 0.36768571
-0.21087113 -0.10900138 0.36780444
-0.20910767 -0.10894778 0.36796069
-0.244914 -0.10713843 0.36608589
-0.24294741 -0.10701545 0.36608589
-0.24100913 -0.10690328 0.36611715
-0.23907828 -0.10679272 0.36614841
-0.23707926 -0.10693739 0.3661859
-0.23524041 -0.10699328 0.36616921
-0.23313923 -0.10699999 0.36621091
-0.23086047 -0.1071224 0.36636084
-0.22874704 -0.10711706 0.36649209
-0.22691736 -0.10704271 0.36661708
-0.22507408 -0.10696064 0.36671081
-0.22323644 -0.10688005 0.36680457
-0.22098374 -0.10679873 0.36698163
-0.21867613 -0.10697754 0.36718577
-0.21700656 -0.10709926 0.36735657
-0.21522258 -0.10703958 0.36750242
-0.21300645 -0.10697035 0.36769682
-0.21077676 -0.10689282 0.36785653
-0.20908722 -0.10700001 0.36796069
-0.24432941 -0.10581344 0.36608589
-0.24285638 -0.10572274 0.36608589
-0.23846237 -0.10545591 0.36608589
-0.23682582 -0.10507342 0.36608589
-0.23504317 -0.10482577 0.36608589
-0.23311585 -0.10471302 0.36608589
-0.23128927 -0.10505901 0.36619005
-0.2291251 -0.1050812 0.36635149
-0.22701472 -0.10488728 0.36648169
-0.22494721 -0.10524531 0.36667955
-0.22309221 -0.10515737 0.36674204
-0.22129965 -0.10509763 0.3668983
-0.21906133 -0.10502269 0.36708578
-0.21686709 -0.10496759 0.36733577
-0.21510923 -0.10492127 0.36752325
-0.21291511 -0.10486382 0.36775234
-0.21071507 -0.10480222 0.36796069
-0.20935079 -0.10515406 0.36796069
-0.23255172 -0.10340316 0.36608589
-0.23110598 -0.1029035 0.36611715
-0.22925296 -0.10282217 0.36621088
-0.22688083 -0.10292471 0.36642513
-0.22479652 -0.10310733 0.36664832
-0.22294348 -0.10302159 0.36671081
-0.22109622 -0.1029372 0.36677334
-0.21893539 -0.10289938 0.36708578
-0.21673073 -0.10325219 0.36727327
-0.21501103 -0.10322458 0.36752325
-0.21327683 -0.10318938 0.36774197
-0.21125893 -0.10321888 0.36793572
-0.232416 -0.10127007 0.36608589
-0.23101838 -0.10120732 0.36614841
-0.22918612 -0.10113634 0.36627337
-0.22735943 -0.10106669 0.36639833
-0.22510324 -0.10099018 0.36658585
-0.22281671 -0.10089836 0.36671081
-0.22100887 -0.10083331 0.3668358
-0.21924338 -0.10078667 0.36702329
-0.21694443 -0.10104172 0.36725765
-0.21489114 -0.10110721 0.36752322
-0.21318859 -0.10108739 0.36779404
-0.21167275 -0.10126311 0.36796069
-0.2323361 -0.099991933 0.36608589
-0.23088737 -0.099079706 0.36614838
-0.22905682 -0.099010617 0.3662734
-0.22725774 -0.098954141 0.36644003
-0.22502893 -0.098890908 0.36666918
-0.22275549 -0.099219427 0.36677331
-0.22094861 -0.099155754 0.3668983
-0.21914689 -0.099093333 0.36702329
-0.21699429 -0.099059261 0.36733577
-0.2148287 -0.099018395 0.36761695
-0.21313334 -0.099002257 0.36789823
-0.21177831 -0.098950893 0.36796069
-0.23072012 -0.096938983 0.36608589
-0.22889158 -0.096871808 0.36621088
-0.22710726 -0.096822396 0.36639836
-0.22504905 -0.096844397 0.36658585
-0.22281344 -0.09698493 0.36674652
-0.22081673 -0.097035252 0.36687747
-0.21902907 -0.096979998 0.36702332
-0.21697301 -0.097046003 0.36728892
-0.21489978 -0.096793279 0.36760357
-0.2129966 -0.096881293 0.36785653
-0.21168885 -0.097263545 0.36796069
-0.23014301 -0.095217898 0.36608589
-0.228793 -0.095176913 0.36621088
-0.22699064 -0.095120624 0.3663671
-0.22519338 -0.095065467 0.36652333
-0.22314247 -0.095090084 0.36671081
-0.2209371 -0.094835699 0.3668108
-0.2188769 -0.094853759 0.36696079
-0.21713901 -0.094820186 0.36717954
-0.21497695 -0.094781779 0.36746073
-0.21282047 -0.09474504 0.36774194
-0.21118705 -0.094965674 0.36793572
-0.20969024 -0.094231069 0.36796069
-0.23006968 -0.093947425 0.36608589
-0.22862065 -0.093040429 0.36612758
-0.22680098 -0.092977814 0.36625254
-0.22502512 -0.092932262 0.36644003
-0.22326656 -0.092893094 0.36664832
-0.22100313 -0.093227558 0.36675248
-0.21878715 -0.093168497 0.36696079
-0.2170319 -0.093127847 0.36714828
-0.2150505 -0.093178511 0.36741075
-0.21294685 -0.092964515 0.36763573
-0.21093966 -0.093002185 0.3678357
-0.20931391 -0.092817582 0.36796069
-0.20776744 -0.092469558 0.36796069
-0.22850057 -0.091340244 0.36608589
-0.22692361 -0.090780683 0.3661859
-0.2248853 -0.090813354 0.36639836
-0.22315384 -0.090785816 0.36664832
-0.2210082 -0.091230318 0.36674207
-0.2188611 -0.090949707 0.36694291
-0.21692389 -0.091025613 0.36714828
-0.21519876 -0.090997629 0.36737743
-0.21300255 -0.090944856 0.36758572
-0.21076496 -0.090873033 0.36771071
-0.20903233 -0.091249652 0.36786693
-0.20739466 -0.091059692 0.36796069
-0.20585428 -0.090714648 0.36796069
-0.22888306 -0.089675739 0.36608589
-0.22701675 -0.089184456 0.36616921
-0.22479627 -0.089129165 0.36639836
-0.22302791 -0.089087307 0.36658585
-0.22124532 -0.089038856 0.36674207
-0.21901309 -0.088975467 0.36691913
-0.21683708 -0.088933863 0.36717954
-0.21510705 -0.088904396 0.36739826
-0.21332645 -0.088853218 0.36752325
-0.21110159 -0.088788301 0.36766902
-0.20885587 -0.089123182 0.36773157
-0.20710325 -0.089080423 0.36787739
-0.20540369 -0.088860288 0.36796069
-0.20391293 -0.088131726 0.36796069
-0.22715327 -0.08720167 0.36612159
-0.22495922 -0.086908251 0.3662734
-0.22288285 -0.086971454 0.36652336
-0.22113337 -0.086936831 0.36673164
-0.2189339 -0.086887784 0.36696079
-0.21685436 -0.087016717 0.36721078
-0.21502604 -0.087227978 0.36739826
-0.21328288 -0.087192871 0.36758572
-0.21099907 -0.087104797 0.36762738
-0.20874709 -0.087028138 0.36771071
-0.20698415 -0.086981788 0.3678357
-0.20522556 -0.086936429 0.36796069
-0.2038573 -0.086880893 0.36796069
-0.22706926 -0.08511401 0.36608589
-0.22496374 -0.084914543 0.36625254
-0.22277859 -0.084873714 0.36652336
-0.22105552 -0.084849939 0.36677331
-0.21929899 -0.084812745 0.36696079
-0.21699432 -0.084945031 0.36721078
-0.21495181 -0.085144855 0.3674399
-0.21318549 -0.085101306 0.36758569
-0.21104407 -0.085133165 0.3676638
-0.20885454 -0.084834151 0.36772856
-0.20692639 -0.084910817 0.3678982
-0.20537108 -0.085069709 0.36796069
-0.22668405 -0.083700895 0.36608589
-0.2250324 -0.083314203 0.36618587
-0.22293682 -0.08311189 0.36646086
-0.22097537 -0.08317472 0.36677331
-0.21925715 -0.083152667 0.36702329
-0.21709017 -0.083117045 0.3672941
-0.21490443 -0.083073489 0.36752325
-0.21314502 -0.083033584 0.36767945
-0.21131814 -0.082966529 0.36771071
-0.20904385 -0.082884684 0.3677524
-0.20687118 -0.082841806 0.36796069
-0.22469783 -0.08152499 0.36608589
-0.22296196 -0.081086703 0.36634979
-0.22084023 -0.081069633 0.36671081
-0.21916091 -0.081062183 0.36702326
-0.21702005 -0.081037089 0.36733577
-0.21481133 -0.080985785 0.36752322
-0.2130713 -0.080954127 0.36771071
-0.21122752 -0.08088214 0.36771071
-0.20899594 -0.081228033 0.36779404
-0.20680083 -0.081177123 0.36796069
-0.22297215 -0.079058483 0.36621088
-0.22094674 -0.078881994 0.36658582
-0.21904875 -0.078967601 0.36699206
-0.2170583 -0.07901936 0.36723578
-0.21497302 -0.07881996 0.36748573
-0.21298197 -0.078870095 0.36771071
-0.2111394 -0.078800268 0.36771071
-0.20904249 -0.079261802 0.36782008
-0.20689631 -0.078983448 0.36794284
-0.22311789 -0.076887123 0.36614838
-0.2210817 -0.076966815 0.36644518
-0.21896505 -0.077020228 0.3668358
-0.21711361 -0.077010214 0.36716077
-0.21506445 -0.077234484 0.3674399
-0.21289438 -0.077198327 0.36767945
-0.2110709 -0.077136733 0.36771071
-0.20927052 -0.077082656 0.36777323
-0.20706557 -0.077030525 0.36791906
-0.22302711 -0.074803814 0.36614841
-0.22098736 -0.075005203 0.36631089
-0.21901016 -0.074922822 0.36665729
-0.217127 -0.074988455 0.36701077
-0.21492587 -0.075135693 0.36734965
-0.21275584 -0.075100251 0.36758575
-0.21098773 -0.075059704 0.36771071
-0.20915301 -0.074994616 0.36771071
-0.20707361 -0.075054005 0.36786696
-0.20515835 -0.074566036 0.36793572
-0.22248897 -0.073121771 0.36614838
-0.22116435 -0.073094934 0.3662734
-0.21902458 -0.07307221 0.36658585
-0.21696398 -0.073075585 0.36702329
-0.21500795 -0.07314001 0.36731076
-0.21290383 -0.072935782 0.36751074
-0.21090704 -0.072984979 0.36771071
-0.20907344 -0.072921976 0.36771071
-0.20726302 -0.072866075 0.36774197
-0.20508452 -0.072824657 0.36791906
-0.20329049 -0.07277257 0.36796069
-0.22236587 -0.071031541 0.36608589
-0.22108006 -0.071017899 0.3662734
-0.21894163 -0.07099618 0.36658585
-0.21683316 -0.070983797 0.36693993
-0.21514277 -0.070972331 0.36721075
-0.21296708 -0.070936605 0.36743295
-0.21079326 -0.070900746 0.36764821
-0.20899661 -0.07085187 0.36771071
-0.20718455 -0.071205147 0.36771071
-0.20497823 -0.071154974 0.36783573
-0.20277846 -0.071105838 0.36796069
-0.20111482 -0.07091552 0.36796069
-0.22460547 -0.068622395 0.36608589
-0.22276944 -0.06897819 0.36611715
-0.22099838 -0.068943068 0.36627337
-0.21903512 -0.069006845 0.36656085
-0.21696718 -0.068817541 0.3668358
-0.21502809 -0.068888038 0.36714828
-0.21303543 -0.068940796 0.36736077
-0.21093997 -0.06874086 0.36756071
-0.20890439 -0.06877809 0.36767945
-0.20711082 -0.069138914 0.36771071
-0.20511954 -0.069199748 0.36774641
-0.2029745 -0.068927214 0.3678357
-0.2008646 -0.068975814 0.3678982
-0.19908422 -0.068928629 0.36793986
-0.19728397 -0.068467088 0.36796069
-0.19592546 -0.068016373 0.36796069
-0.22711523 -0.066842452 0.36608589
-0.22502705 -0.066982992 0.36611372
-0.22272134 -0.066913977 0.36616921
-0.22091967 -0.066870689 0.3662734
-0.21917313 -0.06684339 0.36646083
-0.2170644 -0.066933751 0.36680457
-0.21494935 -0.067226335 0.36711702
-0.21319796 -0.067195728 0.36727327
-0.21103436 -0.067164816 0.36750242
-0.20882894 -0.06711977 0.36764818
-0.20703939 -0.067074731 0.36771071
-0.20521978 -0.067019068 0.36771071
-0.20295316 -0.066950612 0.36771071
-0.20072836 -0.066894695 0.36777321
-0.19896081 -0.066852957 0.3678357
-0.19721445 -0.066817716 0.36792946
-0.19543913 -0.066771783 0.36796069
-0.22867647 -0.06461294 0.36608589
-0.22729829 -0.064986788 0.36611715
-0.22500832 -0.064925842 0.36621091
-0.22266957 -0.064849466 0.36621088
-0.22084355 -0.064800397 0.3662734
-0.21909802 -0.064774215 0.36646086
-0.2169375 -0.064922526 0.36671081
-0.21483363 -0.065145612 0.36704409
-0.21312588 -0.065129153 0.36727324
-0.21106657 -0.065201581 0.36747637
-0.2088954 -0.0649269 0.36754999
-0.20694716 -0.065005518 0.36766902
-0.20515202 -0.064959146 0.36771071
-0.20314868 -0.065018065 0.36771074
-0.20107974 -0.064840958 0.36771074
-0.19887504 -0.065198541 0.36777323
-0.19714649 -0.065169893 0.3678982
-0.19538863 -0.065130852 0.36796069
-0.23048875 -0.062597737 0.36608589
-0.22912574 -0.062977888 0.36614838
-0.22727972 -0.062927939 0.36621091
-0.22520468 -0.062979959 0.36621091
-0.22288716 -0.063119352 0.36621088
-0.22078471 -0.063145749 0.36627337
-0.2190212 -0.06311512 0.36642963
-0.21687417 -0.063092619 0.36671081
-0.2147509 -0.063076563 0.36702329
-0.21302006 -0.063053802 0.36721078
-0.21129298 -0.063031733 0.36739826
-0.20905404 -0.062979311 0.36748159
-0.2068339 -0.062931456 0.36758572
-0.20508651 -0.062901139 0.36771071
-0.20327415 -0.062850133 0.36771071
-0.200893 -0.062959768 0.36771074
-0.19881235 -0.063146614 0.36777321
-0.19708467 -0.063119106 0.3678982
-0.19532764 -0.06308154 0.36796069
-0.23090172 -0.060951367 0.36608589
-0.22908971 -0.06091287 0.36621088
-0.2272056 -0.060854375 0.36621088
-0.22532801 -0.060796686 0.36621088
-0.22300465 -0.061139312 0.36621091
-0.22067611 -0.061068941 0.36621091
-0.21893243 -0.061044771 0.36639833
-0.2172301 -0.061031729 0.36664832
-0.21505029 -0.061000302 0.36686361
-0.21288066 -0.06097101 0.36708581
-0.21113123 -0.060943004 0.36723161
-0.20905003 -0.061009947 0.36738265
-0.20689118 -0.060741514 0.36746073
-0.20498362 -0.061240617 0.36761698
-0.20322427 -0.061206743 0.36771071
-0.20097874 -0.061149355 0.36773157
-0.19878568 -0.061106857 0.3678357
-0.19704172 -0.061075278 0.36792946
-0.19526877 -0.061034039 0.36796069
0.065649457 -0.061694782 0.36796069
0.068800949 -0.060934506 0.36796069
0.070327111 -0.060120534 0.36771071
-0.23059928 -0.059076406 0.36608589
-0.22910193 -0.059003808 0.3661859
-0.22714843 -0.059197031 0.36621088
-0.22527161 -0.05914114 0.36621088
-0.22312422 -0.059160449 0.36621088
-0.22088392 -0.058930259 0.36621088
-0.21886489 -0.058981702 0.36639833
-0.21712643 -0.058959391 0.36658582
-0.21493192 -0.05892482 0.36677328
-0.21272562 -0.058886275 0.36692956
-0.21096586 -0.058856212 0.36705455
-0.20921056 -0.058826804 0.36717951
-0.20701094 -0.0587877 0.36731493
-0.20485879 -0.059168298 0.36750242
-0.20311807 -0.059140902 0.36762738
-0.20093101 -0.059102502 0.36775237
-0.19875006 -0.059065003 0.36787736
-0.19700123 -0.059033152 0.36796069
-0.19565892 -0.058999587 0.36796069
0.071949869 -0.059388418 0.36796069
-0.22842613 -0.057562329 0.36608589
-0.22705428 -0.057531193 0.36614841
-0.22517858 -0.057477109 0.36614838
-0.22320056 -0.057171565 0.3661359
-0.22109775 -0.057054583 0.36616403
-0.21890441 -0.056784909 0.36624655
-0.21698861 -0.056880027 0.36646083
-0.21531598 -0.057016682 0.36658582
-0.21303205 -0.057225328 0.36675248
-0.21084505 -0.057192191 0.36692953
-0.20905542 -0.057154104 0.36699203
-0.20708871 -0.057216026 0.36721078
-0.20500462 -0.057023518 0.36738575
-0.20300266 -0.057074357 0.36752325
-0.20128441 -0.057053663 0.36767945
-0.19908695 -0.057012867 0.36777321
-0.19692932 -0.056982651 0.36792946
-0.1953032 -0.056811977 0.36796069
0.075038515 -0.05623221 0.36771071
-0.21884653 -0.054907937 0.36611089
-0.21679777 -0.054789644 0.36624211
-0.21495636 -0.055007674 0.36638588
-0.21313004 -0.055266816 0.366568
-0.21097328 -0.055005115 0.36666396
-0.20888466 -0.055072825 0.36679414
-0.20716055 -0.055052605 0.36696076
-0.20501097 -0.055028275 0.36716914
-0.2028898 -0.055010919 0.36741909
-0.20114432 -0.054983467 0.36752322
-0.19897696 -0.054952238 0.36766899
-0.19679298 -0.054915693 0.36777321
-0.19507276 -0.054893289 0.36789823
-0.19332343 -0.054862041 0.36796069
-0.19197956 -0.054424357 0.36796069
0.046527565 -0.054255512 0.36621088
0.058353275 -0.054432273 0.36696079
0.06111788 -0.054468352 0.36708578
0.074799225 -0.054886296 0.36658585
-0.21805327 -0.053568956 0.36608589
-0.21667665 -0.053127706 0.36611715
-0.21489199 -0.053095303 0.36621088
-0.21311218 -0.053063586 0.36630464
-0.21110165 -0.053116787 0.36646086
-0.20900968 -0.05292549 0.36663583
-0.20699973 -0.052977473 0.36677331
-0.20505142 -0.053044658 0.36701077
-0.20299026 -0.052859597 0.36721078
-0.20104061 -0.052925445 0.36742949
-0.19927786 -0.052893799 0.36749199
-0.19711161 -0.0528633 0.36762738
-0.19494 -0.052830562 0.36774197
-0.19319208 -0.052800827 0.36780444
-0.19104864 -0.052947592 0.36794284
-0.18927312 -0.052331235 0.36796069
0.045537688 -0.052908517 0.36771071
0.055941254 -0.053582117 0.36658585
0.063835308 -0.052904584 0.36696079
0.06454967 -0.052074939 0.36658585
0.075827084 -0.052724041 0.3678357
-0.21462452 -0.051569808 0.36608589
-0.2129906 -0.05099817 0.36619005
-0.21123494 -0.050972912 0.36631504
-0.2090648 -0.050946422 0.36650249
-0.20688863 -0.05091786 0.36666918
-0.20515954 -0.050897438 0.36681497
-0.20302218 -0.050877187 0.36703023
-0.20088243 -0.050855786 0.36723161
-0.19925097 -0.051000006 0.36736077
-0.1969945 -0.051211368 0.36748159
-0.19483545 -0.051182844 0.36761695
-0.19310515 -0.051158555 0.36771071
-0.19095182 -0.051130105 0.36783567
-0.18894835 -0.050969798 0.36796069
0.053535245 -0.050796673 0.36627337
0.0654383 -0.050995141 0.36721078
0.066019394 -0.050455049 0.36608589
0.075634643 -0.051033348 0.36696082
-0.21242017 -0.048926584 0.36608589
-0.21112312 -0.048912834 0.36621088
-0.20896627 -0.048890572 0.3664192
-0.20677391 -0.048859395 0.36655459
-0.20505194 -0.048841383 0.36671081
-0.20292366 -0.048824187 0.36693993
-0.200772 -0.048800789 0.36711705
-0.1989315 -0.049015559 0.36718577
-0.19710825 -0.049271375 0.36730006
-0.19502217 -0.049026918 0.36742952
-0.19296156 -0.049098995 0.36752322
-0.19109802 -0.04920131 0.36771065
-0.18902543 -0.048958786 0.3678357
-0.18721233 -0.048838012 0.36796069
0.044216271 -0.049627747 0.36658585
0.051207379 -0.048086241 0.36646086
0.05295825 -0.049044713 0.3677524
0.06653963 -0.049389899 0.36683583
0.076672673 -0.048895203 0.36671084
-0.21238992 -0.047699541 0.36608589
-0.21104985 -0.046863645 0.36616924
-0.20889407 -0.04684265 0.3663775
-0.20671794 -0.047222394 0.36652336
-0.20499671 -0.047205284 0.36667958
-0.20303853 -0.04727111 0.36688581
-0.20094509 -0.047080763 0.36701077
-0.19892538 -0.047131017 0.36708578
-0.19718766 -0.047108065 0.36717951
-0.19503105 -0.047082361 0.36731493
-0.19288564 -0.047058657 0.36746076
-0.19119406 -0.047045346 0.36761695
-0.18905348 -0.047021627 0.3677524
-0.18693927 -0.047003951 0.36792946
0.051359124 -0.047063529 0.36758572
0.067909546 -0.046807729 0.36796069
0.07580962 -0.046858177 0.36796069
-0.21099089 -0.044818692 0.36614841
-0.20929618 -0.044809185 0.3663671
-0.20700105 -0.045085482 0.36650771
-0.20494582 -0.045165241 0.36666915
-0.20321168 -0.045145735 0.36679411
-0.20106323 -0.045125041 0.36697468
-0.19888251 -0.045096498 0.36708578
-0.19713974 -0.045073446 0.36716911
-0.19495636 -0.045042854 0.36725247
-0.19284482 -0.045028191 0.36746076
-0.19112672 -0.0450093 0.36756489
-0.18899257 -0.044988237 0.36771071
-0.18688451 -0.044972885 0.36789823
-0.18529415 -0.044412851 0.36796069
0.051920068 -0.044932399 0.36608589
0.052803971 -0.044249553 0.3668358
-0.21228695 -0.043204848 0.36608589
-0.21099129 -0.043193273 0.36621088
-0.20927876 -0.043180682 0.36639833
-0.20710532 -0.043157622 0.36656499
-0.20492633 -0.043132816 0.36671081
-0.20322709 -0.043121804 0.3668983
-0.2010597 -0.043098286 0.36704412
-0.19887555 -0.043070454 0.36714828
-0.19712193 -0.043046381 0.36721078
-0.19491684 -0.043012574 0.36725244
-0.19280598 -0.042998902 0.36746076
-0.19108298 -0.042979877 0.36755449
-0.18895496 -0.042961344 0.36771071
-0.18681586 -0.042939715 0.3678357
-0.18512133 -0.042925797 0.36796069
-0.18379858 -0.04250012 0.36796069
0.053643916 -0.043137491 0.36727327
0.067882814 -0.042113848 0.36796069
0.075423889 -0.042736854 0.36621088
-0.21224415 -0.041163936 0.36608589
-0.21097286 -0.041157767 0.36625257
-0.20926081 -0.041146062 0.36644003
-0.20709956 -0.041126814 0.36662751
-0.20490921 -0.041101165 0.36675248
-0.2031873 -0.041086342 0.3668983
-0.20102057 -0.041064285 0.36704409
-0.19885969 -0.041042887 0.36718997
-0.19708407 -0.041015457 0.36721078
-0.19498704 -0.041085631 0.36724204
-0.19291051 -0.040848169 0.3673715
-0.19101985 -0.040947326 0.36750242
-0.18890518 -0.040932663 0.36768287
-0.18673867 -0.040906224 0.3677524
-0.18505555 -0.040895592 0.3678982
-0.18300427 -0.040770017 0.36796069
-0.18113562 -0.040035628 0.36796069
0.054714106 -0.040735856 0.36664832
0.066661015 -0.040914502 0.36777321
-0.21220362 -0.039124154 0.36608589
-0.21094471 -0.03912079 0.36627337
-0.20923316 -0.039109968 0.36646086
-0.20707248 -0.039092053 0.36664832
-0.20488262 -0.039068032 0.36677331
-0.20318429 -0.039058618 0.36696079
-0.20098357 -0.039031375 0.36704412
-0.19878381 -0.03900364 0.36711702
-0.19703148 -0.038982328 0.36717951
-0.19526675 -0.038958061 0.36721078
-0.19306885 -0.038928613 0.36725244
-0.19094788 -0.038914103 0.36742952
-0.18899927 -0.038981467 0.36758572
-0.18693455 -0.038799297 0.36768571
-0.1849602 -0.038860321 0.36777321
-0.18328632 -0.038851932 0.36792946
-0.18111746 -0.038824555 0.36796069
0.055852514 -0.039554253 0.36646086
0.057391971 -0.038770378 0.36633587
0.059977502 -0.038158759 0.3678357
0.06115523 -0.038163662 0.3678357
0.0621005 -0.03802599 0.36646086
0.075545058 -0.039304584 0.3668983
-0.21216571 -0.037085593 0.36608589
-0.21090718 -0.037082635 0.3662734
-0.20917231 -0.037068516 0.3664192
-0.20704785 -0.037058167 0.36666918
-0.20485854 -0.037035808 0.36679414
-0.20314908 -0.037025087 0.36696079
-0.20104273 -0.03709919 0.36700764
-0.19889368 -0.036852058 0.3670322
-0.19692527 -0.036940232 0.36704412
-0.19512296 -0.036910228 0.36700246
-0.19296342 -0.036889736 0.36711353
-0.19083481 -0.036874514 0.36727324
-0.18912379 -0.036860462 0.36737743
-0.18698764 -0.036842749 0.36750239
-0.18486707 -0.03682771 0.36764821
-0.1832746 -0.036980696 0.36778569
-0.18108349 -0.037208203 0.36793986
-0.17905903 -0.037049234 0.36796069
0.074426167 -0.036997154 0.36727327
-0.21213007 -0.03504803 0.36608589
-0.21083599 -0.035039499 0.36621088
-0.20912559 -0.035030417 0.36639836
-0.20696653 -0.035015117 0.36658582
-0.20479587 -0.0349974 0.36674204
-0.20306402 -0.034983613 0.36686707
-0.20128477 -0.034961283 0.3668983
-0.19905783 -0.034932096 0.36691913
-0.19681555 -0.03489951 0.3668983
-0.19500342 -0.034869488 0.3668358
-0.1932624 -0.034851693 0.3668983
-0.19112743 -0.034836341 0.36704412
-0.18899243 -0.03482049 0.36717954
-0.18703781 -0.034887765 0.36731076
-0.18499357 -0.034711517 0.36743575
-0.18298548 -0.035024688 0.36761075
-0.18098387 -0.035177536 0.36779404
-0.17887849 -0.03516471 0.36793986
-0.17728925 -0.034610573 0.36796069
0.071225516 -0.03462458 0.36708578
-0.21210986 -0.033825979 0.36608589
-0.21076727 -0.032998204 0.36614838
-0.20903392 -0.032986287 0.36629418
-0.2069965 -0.033076305 0.36649209
-0.20488897 -0.032840967 0.36662155
-0.20294689 -0.032938525 0.36671081
-0.2011745 -0.032918815 0.36675248
-0.1990281 -0.032988872 0.36671084
-0.19684634 -0.032739669 0.36665726
-0.19487499 -0.032829765 0.36664832
-0.19314077 -0.033217255 0.36671081
-0.19098569 -0.033199258 0.36681497
-0.18887386 -0.033188209 0.36699203
-0.18719561 -0.033181101 0.36714828
-0.18507713 -0.033168107 0.3672941
-0.182974 -0.033157401 0.36746076
-0.18087578 -0.033147264 0.36762738
-0.17875671 -0.033132792 0.36774197
-0.17709635 -0.033127405 0.3678982
-0.17553651 -0.03298131 0.36796069
0.069609761 -0.033043146 0.3668983
-0.21025205 -0.031359095 0.36608589
-0.20893854 -0.030943047 0.36617962
-0.20719846 -0.030930733 0.36630464
-0.20502947 -0.030915821 0.36646083
-0.20281456 -0.030893473 0.36652333
-0.20102067 -0.030871732 0.36652333
-0.1991979 -0.030844983 0.36646086
-0.19696967 -0.030818671 0.36646083
-0.19474855 -0.030792801 0.36646086
-0.1930154 -0.031181509 0.36652336
-0.19088365 -0.031168468 0.36666918
-0.18874632 -0.031154184 0.36679411
-0.18706405 -0.031146824 0.36693993
-0.18494731 -0.031135121 0.36708578
-0.18284588 -0.031125478 0.36725244
-0.18115379 -0.03111572 0.36735663
-0.17905782 -0.031106267 0.36751625
-0.17694275 -0.031093096 0.36762738
-0.17487925 -0.03108857 0.3678357
-0.17274654 -0.030670553 0.36789823
-0.17103916 -0.030656315 0.36792946
-0.16905577 -0.030715918 0.36791071
-0.16688044 -0.03074765 0.3678982
-0.16504104 -0.03099894 0.36791906
-0.16301328 -0.030879632 0.36791384
-0.16093904 -0.03043131 0.36796069
0.058306269 -0.031873953 0.36733577
0.061440501 -0.031884152 0.36733577
-0.2086336 -0.029104199 0.36608589
-0.20710652 -0.028890958 0.36619008
-0.20492509 -0.028875636 0.36632198
-0.20271926 -0.028856253 0.36639836
-0.20091492 -0.028834663 0.3663775
-0.19919574 -0.028974373 0.36633587
-0.1973269 -0.029196411 0.36633587
-0.19510593 -0.029172203 0.36633587
-0.19294131 -0.029155897 0.36642963
-0.1912079 -0.029142156 0.36649209
-0.18909802 -0.029133199 0.36666915
-0.1869397 -0.029116416 0.36674204
-0.18526711 -0.029111071 0.3668983
-0.18313511 -0.029097466 0.36700246
-0.18102881 -0.029087577 0.36714828
-0.17891754 -0.029076377 0.3672733
-0.17682606 -0.029068062 0.36742949
-0.17517109 -0.02906418 0.36758572
-0.17307317 -0.029054003 0.36771071
-0.17095038 -0.029039368 0.36777321
-0.16921878 -0.029021431 0.36774197
-0.16706361 -0.028999979 0.36771071
-0.16492829 -0.028981365 0.36771071
-0.16298081 -0.029046457 0.36773571
-0.16098341 -0.028877329 0.3678357
-0.15922771 -0.028818907 0.36796069
-0.20704028 -0.026856206 0.36611715
-0.2052886 -0.026844192 0.36621088
-0.20306344 -0.026824124 0.36625254
-0.20081699 -0.026800588 0.36624211
-0.19892681 -0.02702198 0.36621088
-0.19723628 -0.02716665 0.36621091
-0.19503862 -0.027147718 0.36625254
-0.1928805 -0.02713372 0.3663567
-0.19116952 -0.027124329 0.36646083
-0.1890405 -0.027113698 0.36659971
-0.18690248 -0.027101249 0.36671081
-0.18516195 -0.027086636 0.36673164
-0.18304513 -0.027076526 0.36686361
-0.18092638 -0.027065637 0.36698163
-0.1790639 -0.027172355 0.36710364
-0.1770701 -0.026953906 0.3673045
-0.17510229 -0.027049646 0.36748159
-0.17298234 -0.027037181 0.36755791
-0.17086411 -0.027024353 0.36762738
-0.16914779 -0.027010312 0.36762738
-0.16698898 -0.026990099 0.36758572
-0.164836 -0.026970014 0.36754405
-0.16315146 -0.026959769 0.36758569
-0.16108237 -0.026952572 0.36771065
-0.159044 -0.026950294 0.36789823
-0.15758815 -0.026744327 0.36796069
-0.20655715 -0.025632465 0.36608589
-0.20521803 -0.025216158 0.36611715
-0.20302276 -0.025201218 0.36621091
-0.20078248 -0.025180232 0.36621088
-0.19899622 -0.025163736 0.36621088
-0.19721498 -0.025147486 0.36621088
-0.19499558 -0.025127536 0.36621091
-0.19284903 -0.0251165 0.36633587
-0.19114929 -0.025109649 0.36646086
-0.18899202 -0.025096418 0.36654416
-0.18688302 -0.025089217 0.36671081
-0.18513224 -0.025074594 0.36671081
-0.18297088 -0.025059478 0.36675248
-0.1808822 -0.025053892 0.36692953
-0.17919123 -0.025046453 0.36702329
-0.17713632 -0.025045047 0.36725244
-0.17503016 -0.025036151 0.36736703
-0.17291947 -0.025026098 0.36746076
-0.17076978 -0.025009984 0.36746076
-0.16905451 -0.024997329 0.36746076
-0.16691589 -0.024981791 0.36746076
-0.16478266 -0.024966536 0.36746076
-0.1630803 -0.024954552 0.36746076
-0.16100299 -0.024946934 0.36756489
-0.15896131 -0.024944514 0.36774194
-0.15691423 -0.024940943 0.3678982
-0.15524964 -0.024535539 0.36796069
-0.20473772 -0.023994401 0.36608589
-0.20293726 -0.023573771 0.36608589
-0.20069437 -0.023150368 0.36608589
-0.19894294 -0.023139663 0.36614838
-0.19719595 -0.023128992 0.36621091
-0.19499165 -0.023112873 0.36623868
-0.19287451 -0.023106724 0.36641917
-0.19113125 -0.023095617 0.36646083
-0.18896712 -0.023083111 0.36653027
-0.18684439 -0.023075247 0.36666915
-0.18511514 -0.023064764 0.36671081
-0.18297487 -0.023053909 0.36679417
-0.18088119 -0.023048691 0.36696079
-0.179175 -0.023040237 0.36702332
-0.17710708 -0.023037706 0.36722469
-0.1749997 -0.023029713 0.36733577
-0.17327558 -0.023017988 0.36733577
-0.17112608 -0.023003593 0.36733577
-0.16900139 -0.022992155 0.36737743
-0.16729051 -0.022981053 0.36737743
-0.16513854 -0.022964735 0.36733577
-0.16302006 -0.022952711 0.36735663
-0.16095588 -0.02294784 0.3674885
-0.15890734 -0.022945015 0.36764821
-0.15694723 -0.023039402 0.36775756
-0.15497534 -0.022823438 0.36790711
-0.15355214 -0.022534024 0.36796069
-0.19889171 -0.02111662 0.36608589
-0.19717893 -0.021111015 0.36621088
-0.19500448 -0.021100089 0.36629423
-0.19288012 -0.021094237 0.36646086
-0.19111511 -0.0210821 0.36646086
-0.18893699 -0.021069596 0.36650252
-0.18681821 -0.021063343 0.36664832
-0.18509984 -0.021055436 0.36671081
-0.18301183 -0.021052061 0.3668983
-0.18086645 -0.021041812 0.36696079
-0.17919111 -0.021038093 0.36708578
-0.17708619 -0.021031886 0.36721078
-0.17497082 -0.021024166 0.36730453
-0.17321765 -0.021010283 0.36724204
-0.17106408 -0.020997033 0.36723161
-0.16896904 -0.020990556 0.36733577
-0.16725856 -0.020980809 0.36733577
-0.16512582 -0.020968854 0.36733577
-0.16299836 -0.020957123 0.36733577
-0.16093157 -0.020952767 0.36746076
-0.15885483 -0.020946871 0.36755449
-0.15721805 -0.020945141 0.36767945
-0.15514892 -0.020939611 0.36777321
-0.15312266 -0.020939605 0.36796069
-0.15143996 -0.020533491 0.36796069
-0.19887669 -0.019098144 0.36608589
-0.19716418 -0.019093564 0.36621091
-0.19501209 -0.019086454 0.36633587
-0.19286592 -0.019079592 0.36646083
-0.19110113 -0.019069089 0.36646083
-0.18891615 -0.019057674 0.36648861
-0.18679418 -0.01905226 0.36662748
-0.18509711 -0.019047687 0.36673164
-0.18300927 -0.01904523 0.36691913
-0.18087424 -0.019037629 0.36700246
-0.17918873 -0.019033628 0.36710659
-0.17707394 -0.019027449 0.36721081
-0.17491417 -0.01901613 0.36721078
-0.17319106 -0.019007247 0.36721078
-0.17104281 -0.01899635 0.36721081
-0.16891928 -0.018987859 0.36725244
-0.16724737 -0.018983727 0.36733577
-0.16511486 -0.018973434 0.36733577
-0.16298763 -0.018963339 0.36733577
-0.16090271 -0.018957818 0.36741909
-0.15881301 -0.018951336 0.36748159
-0.15715006 -0.018946998 0.36754405
-0.15509507 -0.018944083 0.36766899
-0.15306085 -0.018943546 0.36783567
-0.15100726 -0.018940257 0.3679468
-0.14900069 -0.018773602 0.36796069
-0.14724329 -0.018528178 0.36796069
-0.1984182 -0.017077701 0.36608589
-0.19713454 -0.017075086 0.36617962
-0.19496642 -0.017067926 0.36627337
-0.19283718 -0.017063914 0.36642963
-0.19108906 -0.017056461 0.36646086
-0.18889008 -0.017045585 0.36646083
-0.18674542 -0.017039303 0.36655459
-0.18507519 -0.01703815 0.36671081
-0.1829565 -0.017033726 0.3668358
-0.18084279 -0.017029399 0.36696079
-0.179122 -0.017022971 0.36699203
-0.17700298 -0.017017627 0.36708578
-0.17487404 -0.01701103 0.36714828
-0.17310719 -0.016999187 0.36705455
-0.17098427 -0.016992435 0.36710665
-0.16887599 -0.016986847 0.36717951
-0.16718082 -0.016981216 0.36721078
-0.16506796 -0.016974555 0.36725244
-0.16293676 -0.0169656 0.36724201
-0.16083896 -0.016959744 0.3672941
-0.15876818 -0.016956462 0.36739826
-0.15710571 -0.016952913 0.36746076
-0.15502501 -0.016948018 0.36752322
-0.15298751 -0.016947586 0.36767945
-0.15093639 -0.016945401 0.36779407
-0.14889698 -0.016944299 0.36792946
-0.14723715 -0.016939957 0.36796069
-0.14570616 -0.016802525 0.36796069
-0.19692804 -0.015591619 0.36608589
-0.194796 -0.015149465 0.36617967
-0.19274487 -0.015043846 0.3662734
-0.19101393 -0.015039172 0.36633587
-0.18898247 -0.015135633 0.36644521
-0.18688452 -0.014913331 0.36647868
-0.18502374 -0.015026691 0.36662748
-0.18289201 -0.015022297 0.36672473
-0.18074137 -0.015016153 0.36677328
-0.17904711 -0.015013181 0.36685666
-0.17691408 -0.015007815 0.36691913
-0.17475645 -0.0150001 0.36691913
-0.17303498 -0.01499405 0.36691913
-0.17089526 -0.014987177 0.36693299
-0.16879617 -0.014983632 0.36702326
-0.16713504 -0.014982189 0.36712745
-0.16502285 -0.014976917 0.36716914
-0.16290617 -0.014970888 0.36718991
-0.16121866 -0.014966338 0.36721078
-0.15911473 -0.014960971 0.36723858
-0.15702742 -0.014956842 0.3672941
-0.15495662 -0.014953988 0.36737743
-0.15291573 -0.014953746 0.36752322
-0.15087846 -0.014953643 0.36766899
-0.1488273 -0.014952026 0.36777321
-0.14720576 -0.014952498 0.3678982
-0.14524855 -0.014850438 0.36796069
-0.14347653 -0.014151921 0.36796069
-0.19287609 -0.013227587 0.36611715
-0.19092444 -0.013022259 0.36617965
-0.18921459 -0.013020113 0.3662734
-0.18708654 -0.01301776 0.36639836
-0.18494788 -0.013014494 0.36649212
-0.1830146 -0.013093852 0.36663583
-0.1809268 -0.012927431 0.36663583
-0.17896885 -0.013004512 0.36671081
-0.17723842 -0.012999655 0.36671081
-0.17508133 -0.012993716 0.36671081
-0.17293008 -0.012987902 0.36671081
-0.17122817 -0.012984491 0.36674207
-0.16913116 -0.01298225 0.3668358
-0.16705292 -0.012981178 0.36696079
-0.16495119 -0.012978137 0.36702332
-0.16282625 -0.012972933 0.36702329
-0.16115788 -0.012971002 0.36708578
-0.15905179 -0.012966778 0.36710665
-0.15698616 -0.01296556 0.36721078
-0.15489836 -0.012962278 0.36725244
-0.15287137 -0.012963909 0.36742949
-0.15083896 -0.012964893 0.36758569
-0.14879689 -0.012964817 0.36771071
-0.14717571 -0.01296575 0.3678357
-0.14513969 -0.012965909 0.36796069
-0.14305797 -0.012961755 0.36796069
-0.19043176 -0.0118119 0.36608589
-0.18912904 -0.011407898 0.36611712
-0.18697813 -0.011003946 0.36619702
-0.18488455 -0.011004749 0.3663775
-0.18316196 -0.011002309 0.3664192
-0.18101597 -0.010999524 0.36647475
-0.17887218 -0.010996635 0.36652336
-0.17719312 -0.01099636 0.36662748
-0.17504995 -0.010993046 0.36665523
-0.172886 -0.010988165 0.36662754
-0.17117 -0.010985002 0.36662754
-0.16904336 -0.010981974 0.36665523
-0.16696304 -0.010981741 0.36677328
-0.16487496 -0.010980838 0.36686358
-0.16278498 -0.010979439 0.36693993
-0.16109882 -0.010977223 0.36696079
