# .PCD v0.7 - Point Cloud Data file format
VERSION 0.7
FIELDS x y z
SIZE 4 4 4
TYPE F F F
COUNT 1 1 1
WIDTH 1378
HEIGHT 1
VIEWPOINT 0 0 0 1 0 0 0
POINTS 1378
DATA ascii
-0.21483825 0.056999106 0.36216965
-0.21298671 0.056526937 0.36214882
-0.21116856 0.056467853 0.36214882
-0.20975778 0.056006573 0.36208633
-0.20289521 0.056874096 0.36208633
-0.20105192 0.057047106 0.36218631
-0.19896311 0.056834508 0.3622863
-0.19700107 0.056875974 0.36243004
-0.19524634 0.056827519 0.36246127
-0.19299658 0.05707927 0.36257064
-0.19096106 0.057134215 0.36266956
-0.18920507 0.057082821 0.36266959
-0.18703833 0.057026114 0.36271122
-0.18492031 0.056983393 0.36283624
-0.18323219 0.056950659 0.36294043
-0.18110707 0.056904282 0.36303067
-0.17899066 0.056859925 0.36312786
-0.17687331 0.05681444 0.36321118
-0.17477749 0.057173729 0.36330491
-0.17308959 0.057137825 0.36336744
-0.17099208 0.057096306 0.36346117
-0.1688991 0.057055559 0.36355492
-0.16726586 0.057036437 0.36371115
-0.16516729 0.056992467 0.36377361
-0.16308756 0.056954227 0.36386737
-0.16100349 0.056913678 0.36394027
-0.15891121 0.057266191 0.36396113
-0.15764672 0.057235714 0.36396113
-0.1555638 0.057985689 0.36396113
-0.22822803 0.058270819 0.36208633
-0.22682558 0.05822055 0.36208633
-0.22481699 0.058423061 0.36208633
-0.2231579 0.058509927 0.36214882
-0.2213057 0.058444813 0.36214882
-0.20092413 0.058987182 0.36215574
-0.19872701 0.058925342 0.36221132
-0.19698453 0.058879513 0.36227381
-0.19528013 0.058844626 0.36239877
-0.19322941 0.059019305 0.36244345
-0.19091702 0.059124701 0.36246127
-0.18917745 0.059076663 0.3624925
-0.18702687 0.059023127 0.36256543
-0.18490343 0.058977403 0.36268002
-0.18321 0.058941852 0.36277372
-0.18111259 0.058903057 0.36291957
-0.17896849 0.058848314 0.36296123
-0.17678028 0.059109714 0.36310184
-0.17479099 0.059171438 0.36321118
-0.17312258 0.059141118 0.36331534
-0.17103578 0.059102185 0.36343345
-0.16893078 0.059056189 0.36350283
-0.16685688 0.059020206 0.36362782
-0.16476817 0.058978397 0.36371115
-0.1630709 0.058934782 0.36371115
-0.16097915 0.058890026 0.3637667
-0.15891619 0.058855128 0.36387777
-0.15707089 0.058816876 0.3639254
-0.15499763 0.059248038 0.36393613
-0.15321954 0.059262116 0.36396113
-0.1514121 0.059485294 0.36396113
-0.074278556 0.059629411 0.36346117
-0.07260254 0.058748912 0.36296123
-0.068422571 0.058803834 0.36358616
-0.067189172 0.059511654 0.36321118
-0.20096976 0.061012637 0.36210716
-0.1987984 0.060956948 0.36221132
-0.19702105 0.060899228 0.36221132
-0.19524872 0.060842242 0.36221132
-0.19296575 0.061080456 0.36225817
-0.19087522 0.061114967 0.36225298
-0.18913037 0.061063677 0.36227381
-0.18699616 0.061013713 0.36237797
-0.18487813 0.06096831 0.36250296
-0.18318993 0.060933392 0.36260709
-0.18107861 0.06088876 0.36272511
-0.17896886 0.06084387 0.36283627
-0.17701057 0.061039302 0.36297911
-0.17482118 0.061175276 0.36314869
-0.17316224 0.061147556 0.36327368
-0.17108779 0.061112057 0.3634195
-0.16896909 0.061059952 0.36346117
-0.16689448 0.061022867 0.36358616
-0.16476725 0.060965702 0.36358616
-0.16306981 0.060920693 0.36358616
-0.16098087 0.060875762 0.36364865
-0.1588966 0.06083174 0.36371115
-0.15714404 0.061031263 0.36373615
-0.15513742 0.061143383 0.36375281
-0.15306622 0.061101586 0.36381531
-0.15100555 0.061063126 0.36389166
-0.14892887 0.061017353 0.36391947
-0.14695166 0.060872227 0.3639299
-0.14494349 0.061035357 0.36390758
-0.14310817 0.060880821 0.36391947
-0.14106391 0.061239328 0.36396113
-0.13900723 0.0615911 0.36396113
-0.07638713 0.061011888 0.36221132
-0.066302374 0.060180645 0.36258626
-0.064880639 0.061323982 0.36329451
-0.20103329 0.063044816 0.36208633
-0.19881506 0.062972806 0.36210716
-0.19704862 0.062916815 0.36212799
-0.19529824 0.062865242 0.36216965
-0.19321704 0.063026704 0.36215776
-0.19089028 0.063123234 0.36214882
-0.18913421 0.063066714 0.36214882
-0.18698889 0.063011654 0.36223218
-0.18487589 0.062966622 0.36236751
-0.18318227 0.062928915 0.36246127
-0.1810742 0.062884033 0.36258626
-0.17898652 0.062845603 0.36274251
-0.17691416 0.062811896 0.3629196
-0.1748535 0.063180618 0.36308622
-0.17319407 0.063152142 0.36321118
-0.17113526 0.06312158 0.36339176
-0.16902864 0.063072696 0.36346117
-0.16693385 0.063027188 0.36354449
-0.16480596 0.062968202 0.36354449
-0.16308923 0.062914573 0.36350283
-0.16099063 0.062864713 0.36354452
-0.15892418 0.062826484 0.36364865
-0.15711057 0.062915824 0.36366948
-0.15497521 0.06320212 0.36363614
-0.15304862 0.063074589 0.36364865
-0.15097357 0.063028991 0.36369029
-0.14889432 0.062980622 0.36371115
-0.14722764 0.062939703 0.36371115
-0.14514883 0.06288939 0.36371115
-0.14308673 0.06284529 0.36374241
-0.14095122 0.063106954 0.36382049
-0.13902101 0.063174672 0.36389863
-0.13748097 0.063309096 0.36396113
-0.079126246 0.062120359 0.36396113
-0.06290251 0.062949345 0.3630237
-0.20246845 0.065538071 0.36208633
-0.2009286 0.064994752 0.36208633
-0.19887969 0.065004699 0.36208633
-0.19724394 0.064812742 0.36208633
-0.19531234 0.064476043 0.36208633
-0.19398536 0.064431332 0.36208633
-0.18870552 0.064256914 0.36208633
-0.18671508 0.064741872 0.36214879
-0.18487591 0.064965777 0.36223218
-0.18316619 0.064921208 0.36229464
-0.18106496 0.064877555 0.36243355
-0.17898567 0.064841092 0.36260709
-0.17692487 0.064810731 0.36280847
-0.17487255 0.065181859 0.36299247
-0.17324248 0.065163679 0.36317992
-0.17114203 0.065116696 0.36327365
-0.16907537 0.065081842 0.3634299
-0.16695593 0.065025754 0.36346117
-0.16482744 0.064964995 0.36346117
-0.16312899 0.064917162 0.36346117
-0.16101126 0.064858325 0.36346117
-0.15883215 0.065043472 0.36348614
-0.15724221 0.065163545 0.36350283
-0.15513349 0.065104693 0.36348897
-0.15302391 0.065044306 0.36346117
-0.15094906 0.064997211 0.36350286
-0.14886136 0.064943664 0.36350283
-0.14719491 0.064901508 0.36350283
-0.14512742 0.064854659 0.36353064
-0.14309962 0.06482476 0.36364865
-0.14117776 0.065016851 0.36371115
-0.13903338 0.065152392 0.36380491
-0.13702233 0.06512814 0.36394033
-0.08374507 0.064429291 0.36333618
-0.060955781 0.064090975 0.36296123
-0.059206516 0.065434642 0.36329451
-0.20243697 0.067005053 0.36208633
-0.200826 0.066946819 0.36208633
-0.19892642 0.066227131 0.36208633
-0.1847436 0.066831492 0.36212799
-0.18317838 0.066923641 0.36218008
-0.18105417 0.066870369 0.36227378
-0.17898166 0.066835441 0.36246127
-0.17681813 0.066979177 0.36269334
-0.17488354 0.067180462 0.36287794
-0.17291872 0.067147158 0.36303937
-0.17091513 0.067109063 0.36317545
-0.16906595 0.067069948 0.36327365
-0.16699257 0.067030743 0.36340564
-0.16486968 0.066970728 0.3634195
-0.16316123 0.066917636 0.36339867
-0.16105817 0.0668635 0.36343342
-0.15904613 0.066972092 0.36346117
-0.1568609 0.067152016 0.36346117
-0.15474474 0.067088291 0.3634299
-0.153027 0.067025438 0.36333618
-0.15093458 0.066969402 0.36333618
-0.14887248 0.066925712 0.36339867
-0.14720574 0.066882327 0.36339867
-0.14515181 0.066840574 0.36346117
-0.14309566 0.067191623 0.363482
-0.14109284 0.067171954 0.3636556
-0.13905527 0.067135148 0.36373198
-0.13704763 0.067112118 0.36387783
-0.13510552 0.067239985 0.36396113
-0.13380487 0.067847274 0.36396113
-0.086925074 0.066046022 0.36333618
-0.057056826 0.067132086 0.36271128
-0.18448006 0.06816458 0.36208633
-0.18311042 0.068766199 0.36208633
-0.18107329 0.068874381 0.36216962
-0.17900014 0.06883841 0.36235711
-0.17704064 0.068907298 0.36253938
-0.17488635 0.069176234 0.36274248
-0.17322594 0.06914515 0.36286747
-0.17115457 0.069107324 0.36302373
-0.16908729 0.069070473 0.36317992
-0.16699581 0.069022916 0.36327371
-0.16489473 0.068970427 0.36333618
-0.16319516 0.068919741 0.36333618
-0.16108526 0.068861313 0.36335698
-0.15901688 0.068819702 0.36346117
-0.15690827 0.069156304 0.36343342
-0.15476306 0.069078244 0.36333618
-0.15305813 0.069019377 0.36327365
-0.15096213 0.068960391 0.36326671
-0.14888526 0.068908952 0.36329451
-0.14705987 0.068981975 0.36333615
-0.14507383 0.068726443 0.36339864
-0.14314042 0.069187149 0.36346117
-0.14113407 0.069165617 0.36362782
-0.13909841 0.069129109 0.36371115
-0.13707428 0.069097519 0.36381531
-0.13504544 0.069062807 0.36389863
-0.1331788 0.069108978 0.36396113
-0.13138007 0.069385223 0.36396113
-0.076779395 0.069871075 0.36354449
-0.074657962 0.068923607 0.36283624
-0.072907887 0.06909588 0.3638778
-0.071059801 0.068806976 0.36246127
-0.055655111 0.069238052 0.36358616
-0.18112551 0.070891842 0.36212799
-0.17901549 0.070840605 0.36224258
-0.17684482 0.070980407 0.36246127
-0.17491131 0.071181096 0.36264876
-0.17323051 0.071141027 0.36273208
-0.17114735 0.071097337 0.36286402
-0.16908152 0.071060173 0.36302373
-0.16702659 0.071026951 0.3631973
-0.16491218 0.070967518 0.36323202
-0.16322161 0.070919417 0.36325285
-0.16112651 0.07086616 0.36330837
-0.15905124 0.070820615 0.36339867
-0.15691818 0.071144827 0.36331534
-0.15478298 0.071069263 0.36324242
-0.15309075 0.071014963 0.36321118
-0.15099701 0.070955671 0.36321118
-0.14890802 0.070897371 0.36321118
-0.1468495 0.070852317 0.36327365
-0.14472856 0.071051255 0.36336118
-0.14310756 0.071026444 0.36346117
-0.14115533 0.071150437 0.36354452
-0.13913508 0.071121044 0.36366948
-0.13709193 0.071079165 0.36372504
-0.13504203 0.071032643 0.36375281
-0.13301156 0.070995264 0.36382225
-0.13099431 0.070964292 0.36391947
-0.12895076 0.070918038 0.36393335
-0.12690847 0.070871271 0.36394033
-0.12497389 0.070927106 0.36394551
-0.12298578 0.071316123 0.36396113
-0.12163558 0.071551047 0.36396113
-0.078616805 0.071192645 0.36346117
-0.07763993 0.070725612 0.36383614
-0.068596743 0.07098753 0.36377364
-0.055623427 0.071133852 0.36325285
-0.18227385 0.073152795 0.36208633
-0.1807458 0.072896197 0.36208633
-0.17907415 0.072860934 0.36221132
-0.17709306 0.072919689 0.36235189
-0.17490786 0.073174745 0.3624925
-0.1732468 0.073141925 0.36261749
-0.17114516 0.073089391 0.36271122
-0.16910657 0.07306312 0.36293
-0.16704305 0.073025435 0.36308622
-0.16494082 0.072969928 0.36314869
-0.16301641 0.07300175 0.36321118
-0.16097577 0.07277713 0.36321118
-0.15896669 0.073042512 0.36323616
-0.15693583 0.073137417 0.36321118
-0.15483122 0.073074445 0.36321118
-0.15315148 0.073024891 0.36321118
-0.15105668 0.072963946 0.36321118
-0.14896663 0.072904013 0.36321118
-0.14688191 0.072845206 0.36321118
-0.14491932 0.072964989 0.3632862
-0.1432976 0.072939441 0.36338618
-0.14116986 0.073132426 0.3634403
-0.13912126 0.073087603 0.3634924
-0.13706905 0.073039636 0.36352363
-0.1350321 0.072998896 0.36358616
-0.13299918 0.072959185 0.36364865
-0.13096942 0.072920449 0.36371115
-0.12893592 0.072878428 0.36375281
-0.12689856 0.072833151 0.36377364
-0.1248605 0.073179513 0.36375278
-0.12283745 0.073140033 0.36379448
-0.12094261 0.073216125 0.36389863
-0.1192529 0.073886946 0.36396113
-0.089226976 0.073024206 0.36258626
-0.078783505 0.073040836 0.36350283
-0.055608153 0.073048986 0.36302373
-0.18282619 0.075079799 0.36208633
-0.18082276 0.074925981 0.36208633
-0.17910376 0.074870318 0.36211759
-0.17687944 0.07498648 0.36222917
-0.17489652 0.075164899 0.36231545
-0.17322536 0.075126946 0.36241961
-0.17114496 0.075082354 0.36255848
-0.16909476 0.075050421 0.36275291
-0.16704233 0.075016789 0.36293349
-0.16494296 0.074961193 0.3630029
-0.16307367 0.074906483 0.36303267
-0.16105965 0.074855536 0.36310184
-0.15915462 0.074963376 0.3631362
-0.15695515 0.075131133 0.36310706
-0.1548411 0.075062171 0.36308622
-0.15316105 0.075011283 0.36308622
-0.15108316 0.074957252 0.36312786
-0.14901389 0.074906461 0.36317992
-0.14694096 0.074852534 0.36321118
-0.14486323 0.075190328 0.36319032
-0.14321001 0.075147711 0.36321118
-0.14115363 0.075098515 0.36325282
-0.13908511 0.075041763 0.36325285
-0.13704231 0.074997514 0.36330837
-0.13500832 0.074957222 0.36337784
-0.13298306 0.074920788 0.36346117
-0.13095342 0.074880935 0.36352363
-0.12893729 0.074847907 0.36361396
-0.12689729 0.074799992 0.36362782
-0.12485211 0.075140908 0.36358616
-0.12284666 0.075111173 0.36367989
-0.1208373 0.07507816 0.36375281
-0.11886465 0.075067535 0.36392987
-0.11766685 0.075444862 0.36396113
-0.09029343 0.074820504 0.36358616
-0.078772023 0.07513307 0.36293623
-0.07772918 0.075089797 0.36396113
-0.066466853 0.075428054 0.36252376
-0.055282999 0.075067364 0.36331534
-0.18288389 0.076544359 0.36208633
-0.18087 0.076145113 0.36208633
-0.17913491 0.076082021 0.36208633
-0.17700298 0.076416761 0.36211756
-0.17489199 0.077157944 0.36214882
-0.17320071 0.077110149 0.36221132
-0.17113335 0.077070266 0.36237797
-0.16908951 0.077040374 0.36258626
-0.16704969 0.077011831 0.36279455
-0.1649799 0.076968789 0.36293
-0.16286807 0.07690499 0.36296126
-0.16074738 0.07683567 0.36296123
-0.15898958 0.077025987 0.36298624
-0.15696421 0.077120505 0.36297515
-0.15485273 0.077051222 0.36296126
-0.15317237 0.076998986 0.36296126
-0.15109988 0.076946445 0.36301681
-0.1490202 0.07688915 0.36304459
-0.14693427 0.076827161 0.36304459
-0.14485663 0.077163503 0.36302376
-0.14319506 0.07711532 0.36302376
-0.14112251 0.077056095 0.36302373
-0.13906617 0.077004537 0.36305499
-0.1370458 0.07697171 0.36316952
-0.13501278 0.076931037 0.36324242
-0.13300635 0.076904707 0.36337784
-0.13098374 0.076868251 0.36346117
-0.12897928 0.076841667 0.36358616
-0.12685806 0.077027492 0.36358616
-0.12487371 0.077120572 0.36350286
-0.12285013 0.07707908 0.36354449
-0.12086248 0.077059239 0.36368337
-0.11886094 0.077029884 0.36377361
-0.11698201 0.077114373 0.36391425
-0.11529122 0.077782869 0.36396113
-0.090038858 0.077719949 0.36233628
-0.07835912 0.076892532 0.36308622
-0.077162907 0.077136353 0.36380044
-0.06651634 0.076646551 0.36271125
-0.055318803 0.077178568 0.36288625
-0.17307372 0.078574553 0.36212799
-0.17114356 0.079068027 0.36223903
-0.16910575 0.079040416 0.3624613
-0.167059 0.079008043 0.36265567
-0.1649715 0.078955613 0.36275288
-0.16287033 0.078895397 0.3628085
-0.16076164 0.078830242 0.36283621
-0.15914807 0.078933261 0.36281124
-0.1569448 0.079095699 0.36277375
-0.15483928 0.079027623 0.36277375
-0.15319839 0.078994483 0.3628675
-0.15111524 0.078935362 0.36289874
-0.14904934 0.078884207 0.36296123
-0.14682741 0.078977771 0.36290768
-0.14487658 0.079151198 0.36291957
-0.14319815 0.079092674 0.36287788
-0.14112531 0.079031937 0.36287796
-0.13907279 0.078981303 0.36291957
-0.13704546 0.078943938 0.36301681
-0.13504978 0.07892409 0.36319032
-0.13303116 0.078890309 0.36329448
-0.13103803 0.078871004 0.36346117
-0.12902761 0.07884068 0.36357227
-0.12707183 0.078952529 0.36358616
-0.12493946 0.079129018 0.36354449
-0.12290408 0.079079628 0.36355492
-0.12089343 0.079044871 0.36362782
-0.11888901 0.079013333 0.36371115
-0.11688735 0.07898283 0.36379448
-0.11491457 0.078971297 0.36396113
-0.1137097 0.079342365 0.36396113
-0.078227848 0.078703925 0.36233628
-0.076982558 0.079067513 0.36333618
-0.075153574 0.079127155 0.36391947
-0.066661932 0.079144381 0.36333618
-0.054654796 0.079194054 0.36351117
-0.17099777 0.080987468 0.3621363
-0.16910917 0.081034712 0.36230505
-0.16705412 0.080997653 0.3624821
-0.16498369 0.080952421 0.36261749
-0.16287118 0.080885239 0.36264873
-0.1606683 0.081049547 0.36263627
-0.15906224 0.081154905 0.36262789
-0.15695125 0.081083946 0.36262792
-0.15485424 0.081018798 0.36264876
-0.15319103 0.080973215 0.36269042
-0.15111493 0.080916494 0.362739
-0.14903736 0.080857761 0.36277375
-0.14705186 0.08089298 0.3627581
-0.14485638 0.081117019 0.36271125
-0.14319444 0.081066348 0.36271125
-0.14112143 0.081004076 0.36271122
-0.13908866 0.080963761 0.36280501
-0.13707544 0.080933936 0.3629404
-0.13508032 0.080914363 0.36311746
-0.13307251 0.080886669 0.36325285
-0.13108233 0.080869161 0.3634299
-0.12905009 0.080824986 0.363482
-0.12701391 0.081171118 0.363482
-0.12496838 0.081115648 0.36347508
-0.1229453 0.081073485 0.36352363
-0.12093505 0.081038728 0.36360005
-0.1189388 0.081012599 0.36371115
-0.11691831 0.080968931 0.36373889
-0.11492947 0.080946289 0.36385694
-0.11305405 0.081148677 0.36394331
-0.11093674 0.081673592 0.36396113
-0.10972582 0.081645638 0.36396113
-0.08948192 0.081417874 0.36302373
-0.07657896 0.080770686 0.3628898
-0.074981429 0.080898672 0.36358616
-0.073676251 0.08115238 0.3639299
-0.067408323 0.081440322 0.36296123
-0.054565519 0.080960959 0.36330491
-0.17033845 0.082250737 0.36208633
-0.16902849 0.082867295 0.36216134
-0.16704476 0.082984984 0.36229461
-0.16496946 0.082936287 0.36241961
-0.16286142 0.082869887 0.3624613
-0.1608417 0.082965851 0.36248627
-0.15906157 0.083141215 0.36246127
-0.15695029 0.083068497 0.3624613
-0.15485746 0.083004087 0.3624925
-0.15321605 0.082969278 0.36258626
-0.1511364 0.082909517 0.36262789
-0.14907829 0.0828605 0.36271125
-0.14688386 0.083085634 0.36267999
-0.14490439 0.083121419 0.36266959
-0.14306614 0.083065338 0.36267552
-0.14106819 0.083004914 0.36267999
-0.13911417 0.082952537 0.36271122
-0.13708586 0.082913131 0.3628085
-0.13508917 0.082892358 0.36298206
-0.13310017 0.082875818 0.36316952
-0.13108303 0.08284124 0.36327365
-0.129079 0.082814187 0.36340559
-0.12703985 0.083157659 0.36339867
-0.12501042 0.083111987 0.36344036
-0.1229772 0.083062522 0.36346117
-0.12096152 0.083023638 0.36352363
-0.11896923 0.083000034 0.36364865
-0.11695937 0.082963236 0.36371115
-0.11494219 0.082920216 0.36374238
-0.11294773 0.082892537 0.36383614
-0.11094604 0.082858667 0.36389863
-0.10891908 0.083197005 0.36383614
-0.10690463 0.083150707 0.36383614
-0.10491358 0.083121397 0.36390558
-0.10290898 0.083080225 0.36391947
-0.10091514 0.083046518 0.36396116
-0.099056862 0.083538532 0.36396113
-0.075034857 0.082570061 0.36256129
-0.072899133 0.083086491 0.36333618
-0.071196891 0.083715983 0.36346117
-0.069014005 0.083579414 0.3630029
-0.054564029 0.082898103 0.36314872
-0.05351451 0.083070308 0.36396113
-0.16687649 0.084892258 0.3621363
-0.16496632 0.084925622 0.36224255
-0.16302589 0.084783025 0.36228627
-0.16092469 0.085188664 0.36226487
-0.15907188 0.085133374 0.36231551
-0.15699327 0.085076854 0.36239183
-0.15490703 0.085015006 0.36244044
-0.15305816 0.085071683 0.3624613
-0.15105423 0.084801212 0.36252379
-0.14908667 0.084845871 0.36256543
-0.14713418 0.085016854 0.36258626
-0.14493722 0.085118353 0.36258626
-0.14285879 0.085052013 0.36258626
-0.14078479 0.084986776 0.36258626
-0.13916498 0.084957413 0.36268002
-0.13711873 0.084906578 0.36273208
-0.1351071 0.084876291 0.3628675
-0.13310616 0.084852077 0.36302373
-0.13117206 0.085056365 0.3631112
-0.1290641 0.085169762 0.36316952
-0.12704544 0.085131533 0.36325285
-0.12500617 0.085078202 0.36326671
-0.12298923 0.085038893 0.36333621
-0.12098484 0.08500728 0.36343339
-0.11898065 0.084974907 0.36352363
-0.11697931 0.084943734 0.36361396
-0.11496276 0.084900498 0.36364865
-0.11294525 0.084855162 0.36366948
-0.11092433 0.084805913 0.36366948
-0.10891026 0.085152782 0.36364865
-0.10689583 0.085105374 0.36364865
-0.10490286 0.085073732 0.36371115
-0.10291206 0.085042872 0.36377364
-0.10092372 0.085013151 0.36383614
-0.098946109 0.084991634 0.36392987
-0.097489841 0.085100763 0.36396113
-0.054813661 0.085097209 0.36308622
-0.053536568 0.085048653 0.36396113
-0.1662216 0.086155809 0.36208633
-0.1648944 0.086761102 0.36211133
-0.16288477 0.08686129 0.36216962
-0.16076861 0.087183863 0.36214882
-0.15910222 0.087136932 0.36221132
-0.1569898 0.08706063 0.36221132
-0.15490925 0.087000526 0.36227378
-0.1528336 0.086941876 0.36233628
-0.1507753 0.08689189 0.36243004
-0.14911374 0.086842373 0.36246127
-0.14703357 0.087173201 0.36244738
-0.14495508 0.087107301 0.3624613
-0.14287615 0.087039359 0.3624613
-0.14081784 0.086982481 0.36250293
-0.13916951 0.086934946 0.36252379
-0.13713734 0.086892046 0.36261404
-0.13511103 0.086851887 0.36271122
-0.1330933 0.086816244 0.36282238
-0.13100214 0.086940862 0.36293626
-0.12904897 0.087130636 0.36296126
-0.12701209 0.087078974 0.36299247
-0.12497925 0.087028533 0.36302373
-0.12298139 0.087001599 0.36314869
-0.12098616 0.086975873 0.36327365
-0.1190034 0.086958572 0.36342993
-0.11698257 0.086912543 0.36346117
-0.11497459 0.08687488 0.36352366
-0.11283624 0.086990215 0.36351472
-0.11093275 0.087168731 0.36350283
-0.10891506 0.087119229 0.36350286
-0.10690042 0.087070681 0.36350286
-0.10489316 0.087026604 0.36351675
-0.10291031 0.087001689 0.36360702
-0.10092583 0.086974651 0.36368334
-0.098941438 0.086946763 0.36375281
-0.096977778 0.086936541 0.36389169
-0.095005594 0.08731012 0.36396113
-0.093170434 0.087351628 0.36396113
-0.091015309 0.087227792 0.36396113
-0.089485861 0.087261647 0.36366948
-0.056747239 0.087278835 0.36262789
-0.054972116 0.087060414 0.3636018
-0.16248585 0.088451326 0.36208633
-0.160788 0.088387519 0.36208633
-0.1590938 0.088324606 0.36208633
-0.15683556 0.088571824 0.36211133
-0.15491584 0.088591859 0.36214882
-0.15307227 0.088932879 0.36215776
-0.15107146 0.088874452 0.36221129
-0.14910825 0.088820279 0.36227381
-0.14704217 0.089158185 0.36229464
-0.14497446 0.089097582 0.36233628
-0.14290313 0.089033127 0.36235711
-0.14085636 0.088982657 0.36243004
-0.13921143 0.088936597 0.36246127
-0.13714436 0.088870548 0.3624613
-0.13511634 0.088828541 0.36255503
-0.13301004 0.089094609 0.36267999
-0.13107182 0.089143477 0.36271122
-0.12903529 0.089092039 0.36275288
-0.12698752 0.08903154 0.36275288
-0.12497272 0.0889927 0.36283624
-0.12296779 0.088960029 0.36294043
-0.12097955 0.088938795 0.36308622
-0.11900023 0.088923663 0.36325288
-0.11700937 0.088899434 0.36337784
-0.11498108 0.088845707 0.36337784
-0.11304237 0.088881873 0.36332053
-0.11091339 0.089116886 0.36327368
-0.10889592 0.089066245 0.36327365
-0.10688148 0.089016601 0.36327368
-0.10488243 0.088978298 0.36331534
-0.10290658 0.088958845 0.3634299
-0.10091532 0.088925183 0.363482
-0.098940425 0.088905126 0.36358616
-0.096973009 0.088891305 0.36371115
-0.094998799 0.088870771 0.36380491
-0.093026467 0.088851243 0.36389863
-0.090947986 0.089038767 0.36386114
-0.089006282 0.08912646 0.36372501
-0.086910456 0.089367449 0.36324245
-0.085690528 0.089703523 0.36308622
-0.061153874 0.089508012 0.36233628
-0.058705401 0.088853694 0.36271125
-0.057026085 0.088934526 0.36346117
-0.05565463 0.088885985 0.3638778
-0.15076423 0.090453267 0.36208633
-0.14913005 0.090814695 0.36214882
-0.14706387 0.091151632 0.36216962
-0.14499553 0.091089666 0.36221132
-0.14293185 0.091028906 0.36225292
-0.14088036 0.090974666 0.36231545
-0.13893257 0.09092252 0.36236754
-0.13696091 0.090871982 0.36242557
-0.13514654 0.09082222 0.3624613
-0.1332382 0.091009073 0.36253271
-0.13108954 0.0911275 0.36258626
-0.12903768 0.09106449 0.36258626
-0.12701155 0.09101823 0.36264876
-0.12498184 0.09096811 0.36269042
-0.12295891 0.09092164 0.36274248
-0.12096719 0.090897262 0.36287788
-0.11900152 0.090892166 0.36308622
-0.11700386 0.090862237 0.36319032
-0.11497983 0.091203876 0.36316952
-0.11294638 0.09114287 0.36314175
-0.1109271 0.091091633 0.36314869
-0.10890295 0.091034606 0.36312786
-0.10688826 0.090983838 0.36312786
-0.10488497 0.090941168 0.36315563
-0.1028981 0.090911724 0.36323202
-0.1009175 0.090886712 0.36332226
-0.098934911 0.090859376 0.36339867
-0.096961886 0.090839975 0.36350286
-0.095001437 0.090832002 0.36364865
-0.093028024 0.090811223 0.36373889
-0.091115952 0.090929709 0.36373612
-0.08904326 0.091120251 0.36371115
-0.087053917 0.091079704 0.36371115
-0.085175097 0.091066927 0.36348617
-0.082510039 0.091970332 0.36283624
-0.065204471 0.091703571 0.3629612
-0.062893786 0.091339968 0.36323202
-0.060956955 0.09095677 0.36339867
-0.059042402 0.090997458 0.36366946
-0.057198394 0.090873584 0.36391112
-0.055944741 0.090233631 0.36396113
-0.14487429 0.092943192 0.36208633
-0.1429785 0.093037166 0.36219049
-0.14092204 0.092978962 0.36224258
-0.13887791 0.092927486 0.36231545
-0.13681765 0.092863865 0.36233628
-0.13521302 0.092841655 0.36246127
-0.13305932 0.093074724 0.3624613
-0.13110875 0.093113333 0.3624613
-0.12905638 0.093048893 0.3624613
-0.12700786 0.092985623 0.3624613
-0.12499236 0.092944942 0.36254463
-0.12298676 0.092910729 0.36264873
-0.12097941 0.092874296 0.36273903
-0.11899742 0.092856579 0.36289874
-0.11699969 0.092825919 0.36300293
-0.11496904 0.093161218 0.36296123
-0.11294428 0.093105972 0.36296126
-0.11092273 0.093051806 0.36296123
-0.10890479 0.09299884 0.36296126
-0.10691749 0.092970893 0.36305499
-0.10491458 0.092928201 0.36308622
-0.10293189 0.092902422 0.36317992
-0.10093416 0.092861868 0.36321118
-0.098930314 0.092814326 0.36321118
-0.096973903 0.093104318 0.36335176
-0.095011272 0.093192302 0.363482
-0.093048126 0.093181558 0.36361393
-0.091077529 0.093162991 0.36371115
-0.089084774 0.093120553 0.36371115
-0.087094419 0.093079098 0.36371115
-0.085097045 0.093028061 0.36366948
-0.083158016 0.093109556 0.36351115
-0.081250168 0.093451783 0.36327368
-0.068833932 0.093446285 0.36333618
-0.066880636 0.093043514 0.36344036
-0.064958751 0.093074188 0.36367989
-0.063007124 0.093063422 0.36375281
-0.061068594 0.093072206 0.36389863
-0.059637994 0.092935003 0.36396113
-0.14273149 0.094762243 0.36210716
-0.14098164 0.094996728 0.36221132
-0.13894029 0.094946787 0.36229461
-0.13690248 0.094898082 0.36237797
-0.13486853 0.094850674 0.3624613
-0.13282059 0.095187113 0.36246127
-0.13117453 0.095133439 0.36246127
-0.12912092 0.095067538 0.3624613
-0.12707114 0.095002823 0.36246127
-0.12502575 0.09493944 0.3624613
-0.12302646 0.094909929 0.36258626
-0.12101591 0.094870783 0.36266959
-0.11901491 0.094838165 0.36277375
-0.11690373 0.094974563 0.36287197
-0.11501238 0.09516295 0.36291957
-0.11299096 0.095110141 0.36293349
-0.11097693 0.095062077 0.36296126
-0.10895786 0.095007926 0.36296126
-0.10696018 0.094971187 0.36302376
-0.10496542 0.094935648 0.36308622
-0.10297274 0.094901145 0.36314869
-0.10098279 0.094867811 0.36321118
-0.098977856 0.094819196 0.36321118
-0.096990861 0.095010154 0.36324689
-0.095035002 0.095175207 0.36339867
-0.093069516 0.095162392 0.36352363
-0.091097459 0.095142394 0.36361742
-0.089127176 0.095123567 0.36371115
-0.087135762 0.095081173 0.36371115
-0.085137345 0.095029019 0.36366948
-0.083131969 0.094966948 0.36358616
-0.081120804 0.094895147 0.36346117
-0.079119995 0.094832577 0.36336741
-0.077231541 0.094792165 0.36303622
-0.074792698 0.095559232 0.36339867
-0.072757982 0.095054545 0.36312786
-0.07086131 0.095118187 0.36350283
-0.068927005 0.095133923 0.36369035
-0.06696704 0.095114604 0.36373889
-0.065016948 0.095108919 0.36383617
-0.063166671 0.095009014 0.36394551
-0.061488777 0.094289795 0.36396113
-0.14223777 0.096630491 0.36208633
-0.14103049 0.097008713 0.36214882
-0.13899624 0.096963204 0.36225298
-0.13695739 0.096913353 0.36233628
-0.13493782 0.096876018 0.3624613
-0.13287516 0.096806511 0.36246127
-0.13093686 0.097247958 0.3624613
-0.12894849 0.096966252 0.3624613
-0.12713599 0.097023375 0.3624613
-0.1250893 0.096958555 0.3624613
-0.12306044 0.096906014 0.36250293
-0.12106311 0.096877165 0.36262789
-0.11905438 0.096838243 0.36271122
-0.11715639 0.096907131 0.36280501
-0.11504366 0.097156115 0.36283624
-0.11301724 0.097098388 0.36283624
-0.11102269 0.09706682 0.36293
-0.10901204 0.097019851 0.36296126
-0.10702245 0.096990578 0.36305499
-0.10501731 0.096945919 0.36308622
-0.1030413 0.096927308 0.36321118
-0.10103244 0.096876539 0.36321118
-0.099026382 0.096826844 0.36321118
-0.096930571 0.09707725 0.36321118
-0.095054388 0.097154707 0.36329451
-0.093099147 0.097152799 0.3634612
-0.091134131 0.097140722 0.36358616
-0.089170575 0.097129755 0.36371115
-0.087009884 0.097197421 0.36371115
-0.085068539 0.096920952 0.36363304
-0.083162673 0.096958555 0.36354449
-0.081159942 0.096896328 0.3634612
-0.079010949 0.09696839 0.3634612
-0.077098578 0.096717417 0.3634612
-0.074834488 0.097175144 0.36346117
-0.072865993 0.097147584 0.36349243
-0.070919611 0.097149007 0.36362782
-0.0689639 0.097137421 0.36371115
-0.067016803 0.097138077 0.36383614
-0.065070271 0.097139567 0.36396113
-0.063883208 0.096721105 0.36396113
-0.14086583 0.098812602 0.36208633
-0.139054 0.098982662 0.36221129
-0.13702968 0.098943047 0.36233628
-0.13500358 0.098901033 0.36244741
-0.13294478 0.098833792 0.3624613
-0.13089921 0.099169575 0.3624613
-0.12884355 0.099100888 0.36246127
-0.12720214 0.099046916 0.36246127
-0.1251542 0.098980665 0.3624613
-0.12310997 0.098915644 0.36246127
-0.12111166 0.09888605 0.36258626
-0.11911553 0.098857611 0.36271125
-0.1169707 0.098966114 0.36271122
-0.11506306 0.099140249 0.36271122
-0.11305334 0.09909641 0.36276683
-0.11106974 0.099074624 0.36289874
-0.10906748 0.099035107 0.36296126
-0.1070675 0.098996669 0.36302376
-0.10507043 0.098959506 0.36308622
-0.10307547 0.098923422 0.36314869
-0.10108326 0.098888561 0.36321118
-0.099076062 0.098837763 0.36321118
-0.097192012 0.099020824 0.36321118
-0.095096476 0.099158764 0.36327368
-0.09313485 0.099151045 0.3634195
-0.091163777 0.09913297 0.36352366
-0.089204557 0.099127434 0.36366948
-0.08697214 0.099155977 0.36366117
-0.085034437 0.09892676 0.36356115
-0.082947962 0.099016547 0.36346117
-0.081039548 0.098816872 0.36346117
-0.078964934 0.098915465 0.36338618
-0.076993726 0.099074468 0.36335403
-0.074868374 0.099173516 0.36344731
-0.072895497 0.099140652 0.36346117
-0.07095433 0.099150561 0.36362782
-0.068997577 0.099138699 0.36371115
-0.067039236 0.099124126 0.36378059
-0.065101929 0.099140823 0.36396113
-0.063926667 0.099522218 0.36396113
-0.14072648 0.10063546 0.36208633
-0.13911302 0.10100476 0.36216965
-0.13707975 0.10095844 0.36227381
-0.13505782 0.10091934 0.36239877
-0.13301586 0.10086416 0.36246127
-0.13084355 0.10096306 0.3624613
-0.12891231 0.10112911 0.3624613
-0.12685977 0.10106035 0.3624613
-0.12481106 0.10099284 0.3624613
-0.12317506 0.10093981 0.3624613
-0.12116615 0.10090178 0.36255848
-0.11917811 0.10088042 0.36271122
-0.11724766 0.10092209 0.36271122
-0.1151233 0.10116084 0.36271125
-0.11312104 0.10112386 0.36279455
-0.111118 0.10108498 0.3628675
-0.10912406 0.10105333 0.36296126
-0.1071137 0.10100532 0.36299247
-0.10512462 0.10097605 0.36308622
-0.10313739 0.10094787 0.36317992
-0.10113511 0.10090353 0.36321118
-0.099126756 0.10085164 0.36321118
-0.097011313 0.10097082 0.36321118
-0.095134281 0.10116005 0.36323202
-0.093175262 0.10115598 0.36339176
-0.090805635 0.10113008 0.36350286
-0.088830434 0.10110719 0.36358616
-0.086827196 0.10105062 0.36354452
-0.08481694 0.10098367 0.36346117
-0.082822949 0.10093322 0.36343339
-0.080825225 0.10087613 0.36337784
-0.078833625 0.10082421 0.36333615
-0.076861158 0.10118598 0.36333618
-0.074900113 0.10117074 0.3634195
-0.072931945 0.10114489 0.36346117
-0.070981696 0.10114338 0.36358616
-0.069025978 0.1011341 0.36367989
-0.067063645 0.10111441 0.36373198
-0.065117419 0.10111882 0.3638674
-0.0633232 0.10119553 0.36396113
-0.13887878 0.1027419 0.36210716
-0.13713163 0.10297676 0.36221132
-0.13509831 0.10292884 0.3623085
-0.13306558 0.10288028 0.36239877
-0.13112736 0.1029262 0.36244568
-0.12898248 0.10316045 0.36246127
-0.12692858 0.10309022 0.3624613
-0.12487854 0.10302126 0.36246127
-0.12283274 0.10295372 0.3624613
-0.12083226 0.10292292 0.36258626
-0.11883444 0.10289347 0.36271122
-0.11679849 0.10282978 0.36271125
-0.11509866 0.10302038 0.36271125
-0.11316841 0.1031352 0.36275288
-0.11116118 0.10309261 0.36281538
-0.10916523 0.10305917 0.36290571
-0.10716116 0.10301714 0.36296126
-0.10517602 0.1029921 0.36307234
-0.10302599 0.10308176 0.36319333
-0.10108489 0.10281822 0.36321118
-0.09917859 0.10286891 0.36321118
-0.097274974 0.1029206 0.36321118
-0.095178477 0.10316987 0.36321118
-0.093193479 0.10313803 0.36327365
-0.090837158 0.10312734 0.3634403
-0.088853456 0.103095 0.3634924
-0.086852074 0.10304031 0.36346117
-0.084853373 0.10298663 0.36342993
-0.082843311 0.10291653 0.36333618
-0.080857404 0.10287403 0.36333618
-0.078760333 0.10299762 0.36331829
-0.076887362 0.10317666 0.36327365
-0.074921325 0.10315518 0.36333618
-0.072965018 0.10314653 0.3634403
-0.070998885 0.10312326 0.36348897
-0.069035441 0.10310294 0.36354449
-0.067086183 0.1031035 0.36366948
-0.065126218 0.10308733 0.36373198
-0.063181862 0.10309584 0.36387783
-0.060949624 0.10331272 0.36396116
-0.059271805 0.10385989 0.36396113
-0.13717307 0.10498854 0.36211756
-0.13513768 0.10493868 0.36221132
-0.13310529 0.10489003 0.36230505
-0.13105403 0.10482488 0.36233628
-0.12900977 0.10515923 0.36233628
-0.1269552 0.10508751 0.36233628
-0.12490448 0.10501712 0.36233628
-0.12288621 0.10497223 0.36241964
-0.12087769 0.10493476 0.36252376
-0.11887666 0.10490257 0.36264178
-0.11686222 0.10485766 0.36271122
-0.11495213 0.10502935 0.36271122
-0.11281116 0.10513692 0.36271125
-0.11118955 0.10508775 0.36271125
-0.10917825 0.1050395 0.36275288
-0.10695674 0.10509305 0.36288625
-0.10504389 0.10490464 0.36298624
-0.10281166 0.1049454 0.36306539
-0.10082244 0.10491434 0.36314869
-0.098812796 0.10486055 0.36314869
-0.096728645 0.10504472 0.3631362
-0.094817773 0.10516662 0.36316955
-0.092826895 0.10512833 0.36321118
-0.090852275 0.1051072 0.36330837
-0.088882655 0.10509125 0.3634195
-0.086884648 0.10504042 0.36340562
-0.084871262 0.10496864 0.36331534
-0.082867824 0.10490609 0.36325282
-0.080881216 0.10486269 0.36325288
-0.078989252 0.10491127 0.36321118
-0.076914378 0.10516983 0.36321118
-0.07493896 0.10513577 0.36323202
-0.07298214 0.10512692 0.36333618
-0.071030401 0.10512525 0.36346117
-0.069055431 0.10508845 0.36346117
-0.067093968 0.10507088 0.36352369
-0.065150522 0.10508141 0.36367992
-0.063196361 0.10507504 0.36377361
-0.060854416 0.1050724 0.36389863
-0.058896706 0.1050593 0.36396113
-0.057722535 0.10544305 0.36396113
-0.13490511 0.10667857 0.36214879
-0.13314672 0.10690252 0.36221132
-0.13111329 0.10685125 0.36229461
-0.12908293 0.10719686 0.36233628
-0.12702698 0.10712365 0.36233628
-0.12497483 0.10705175 0.36233628
-0.12294105 0.10699364 0.36237797
-0.12092456 0.10694913 0.36246127
-0.11892482 0.10691833 0.36258626
-0.1168869 0.10685192 0.36258626
-0.11475925 0.10697313 0.36263981
-0.11285435 0.10714773 0.36264873
-0.11083325 0.10709134 0.36266959
-0.10880884 0.10703 0.36266959
-0.10681248 0.10699464 0.36275288
-0.1048364 0.10697886 0.36289874
-0.10283057 0.10693169 0.36293349
-0.10083117 0.10688979 0.36298206
-0.098826915 0.10684099 0.36300293
-0.096899629 0.10694631 0.36298624
-0.094825707 0.10713926 0.3630029
-0.092845231 0.10711242 0.36308622
-0.090871878 0.10709292 0.36319032
-0.088894889 0.10706839 0.36327368
-0.08689484 0.10701448 0.36325285
-0.084892429 0.1069556 0.36321118
-0.082902662 0.10691023 0.36321118
-0.080915138 0.10686594 0.36321118
-0.07893011 0.1068229 0.36321118
-0.07695549 0.10718417 0.36321118
-0.074974678 0.10714327 0.36321118
-0.073008396 0.1071218 0.36327365
-0.071049079 0.10710983 0.36336392
-0.069084115 0.10708863 0.36341953
-0.067118019 0.10706463 0.3634612
-0.064999096 0.10706311 0.36358616
-0.063117608 0.10706251 0.3636955
-0.060864404 0.1070455 0.36376667
-0.058910739 0.10704034 0.363857
-0.057057362 0.10713788 0.36394551
-0.054999676 0.10741314 0.36396113
-0.053040549 0.10778701 0.36396113
-0.051071554 0.10735705 0.36396113
-0.049109664 0.10733064 0.36396113
-0.047149021 0.10730526 0.36396113
-0.045347363 0.1073633 0.36396113
-0.042844664 0.10765517 0.36396113
-0.13305031 0.10877886 0.36212799
-0.13115904 0.10886811 0.36221132
-0.12913145 0.10882026 0.36230505
-0.12699381 0.10905778 0.36233628
-0.12504677 0.10909021 0.36233628
-0.12301157 0.10903088 0.36237791
-0.12099371 0.10898539 0.3624613
-0.11897434 0.1089371 0.36253074
-0.11693987 0.10887349 0.36254463
-0.11500802 0.10891059 0.36253941
-0.11287934 0.10914245 0.36252376
-0.11085122 0.10907862 0.36252376
-0.10884506 0.10903489 0.36258626
-0.10684169 0.10899248 0.36264876
-0.10484087 0.10895132 0.36271125
-0.10284855 0.10891771 0.36279455
-0.10084677 0.1088729 0.36283624
-0.09873572 0.10910877 0.36280501
-0.096839547 0.10916731 0.36283624
-0.094852924 0.10913452 0.36290571
-0.092864633 0.10909879 0.36296126
-0.090888977 0.1090767 0.36305845
-0.088918336 0.10906001 0.36316952
-0.086922593 0.10901126 0.36316952
-0.08491946 0.10895115 0.36312786
-0.08292897 0.10890485 0.36312786
-0.08094532 0.10886589 0.36314869
-0.078973055 0.1088408 0.36321118
-0.076997384 0.10920166 0.36321118
-0.075015418 0.10915995 0.36321118
-0.073035441 0.10911931 0.36321118
-0.071065784 0.10909238 0.36325288
-0.069105573 0.10907914 0.36333618
-0.067142554 0.10906077 0.36339867
-0.064793751 0.109049 0.36350283
-0.062847547 0.10905807 0.36364865
-0.060887743 0.10904334 0.36371115
-0.058918636 0.10901091 0.36371115
-0.056967542 0.10901087 0.36381531
-0.055013739 0.10900558 0.36389863
-0.053051535 0.10898282 0.36391947
-0.051084533 0.10894857 0.36389863
-0.049122106 0.10892174 0.36389863
-0.047160931 0.10889594 0.36389863
-0.045201126 0.10887131 0.36389863
-0.042853344 0.10884938 0.36391947
-0.040900707 0.10883956 0.36396113
-0.039730914 0.10922897 0.36396113
-0.13241422 0.11051273 0.36208633
-0.13097019 0.11076556 0.36213991
-0.12917411 0.11083588 0.36221132
-0.12726729 0.11101959 0.36228275
-0.12512009 0.1111321 0.36233628
-0.12307642 0.11106511 0.36235714
-0.12106419 0.11102504 0.36246127
-0.11902064 0.11095456 0.3624613
-0.11698066 0.11088541 0.36246127
-0.11494461 0.11081776 0.3624613
-0.11292515 0.11115882 0.3624613
-0.110896 0.11109367 0.3624613
-0.10887007 0.11102983 0.3624613
-0.10685997 0.11098011 0.36250296
-0.1048767 0.11095715 0.36262789
-0.10287176 0.11091015 0.36266959
-0.10085773 0.11085162 0.36266959
-0.098974645 0.11103696 0.36269337
-0.096861094 0.11115705 0.36271125
-0.09486112 0.11110864 0.36273208
-0.092876956 0.11107741 0.36280498
-0.090905339 0.11106023 0.3629196
-0.088917188 0.111022 0.36296123
-0.086926371 0.11097863 0.36298206
-0.084927887 0.11092372 0.36296123
-0.082937069 0.11087649 0.36296126
-0.080962449 0.11084943 0.36302376
-0.078890234 0.11111537 0.36305499
-0.07701809 0.1111908 0.36310706
-0.075039819 0.11115465 0.36312786
-0.073071666 0.11113238 0.36319032
-0.071096942 0.11109861 0.36321118
-0.069123842 0.11106584 0.36323202
-0.067165449 0.11105563 0.36332226
-0.064821988 0.11105419 0.3634612
-0.062871255 0.11105701 0.36358616
-0.060921047 0.11106102 0.36371115
-0.058950808 0.11102793 0.36371115
-0.05698232 0.11099607 0.36371115
-0.055021614 0.1109779 0.36375281
-0.053055998 0.11094829 0.36375278
-0.051088843 0.11091343 0.36373198
-0.049123377 0.11087979 0.36371115
-0.047162116 0.11085347 0.36371115
-0.045205638 0.11083677 0.36373889
-0.042858437 0.11081645 0.36376667
-0.040908594 0.11081483 0.36383617
-0.039060701 0.11092356 0.3639299
-0.037016705 0.11161657 0.36396113
-0.13042837 0.11248147 0.36208633
-0.12898953 0.11294012 0.36216134
-0.12702449 0.11271752 0.36221132
-0.12515901 0.11314541 0.36223218
-0.12313339 0.11309441 0.3623085
-0.12110138 0.11303615 0.36235714
-0.11906384 0.11297068 0.36237794
-0.11702289 0.11290014 0.36237797
-0.11498591 0.11283113 0.36237791
-0.11295269 0.11315835 0.36233628
-0.11092284 0.11309189 0.36233628
-0.10889623 0.11302676 0.36233628
-0.10689158 0.11298256 0.36239877
-0.1048895 0.11293969 0.36246127
-0.10287233 0.11287875 0.3624613
-0.10085812 0.11281909 0.36246127
-0.098768115 0.11307736 0.36250815
-0.096872598 0.11313608 0.36254463
-0.094892249 0.11311056 0.36264178
-0.092895754 0.11306458 0.36266959
-0.090912297 0.113033 0.362739
-0.088932335 0.11300466 0.36281538
-0.086937755 0.11295613 0.36282235
-0.084937274 0.11289802 0.36279455
-0.082946129 0.11284986 0.36279455
-0.080971174 0.11282226 0.3628571
-0.079121873 0.11303748 0.36294341
-0.077030778 0.11316936 0.36296123
-0.07505203 0.11313244 0.36298206
-0.073085599 0.11311287 0.36305499
-0.071120583 0.11309459 0.36312786
-0.069158711 0.11308072 0.36321118
-0.067190178 0.11305509 0.36325285
-0.06485071 0.11306215 0.3634195
-0.062900901 0.11306816 0.36355489
-0.060954977 0.11308195 0.36371115
-0.058983583 0.11304821 0.36371115
-0.057013948 0.11301571 0.36371115
-0.055045784 0.11298428 0.36371115
-0.053079262 0.1129541 0.36371115
-0.051114105 0.11292499 0.36371115
-0.049150452 0.11289708 0.36371115
-0.046795797 0.11286508 0.36371115
-0.044834953 0.1128396 0.36371115
-0.04287542 0.11281532 0.36371115
-0.040841363 0.11303337 0.36371115
-0.038968436 0.11318651 0.36375281
-0.03702236 0.11319777 0.36385694
-0.035185028 0.11342532 0.36390758
-0.032992359 0.11345923 0.36396113
-0.031172261 0.11398086 0.36396113
-0.028629931 0.11375759 0.36396113
-0.026867984 0.11353227 0.3639299
-0.024913305 0.11350828 0.36389863
-0.022963528 0.11350489 0.36392987
-0.021014132 0.11350268 0.36396113
-0.019193964 0.11362682 0.36396113
-0.12830295 0.11431056 0.36208633
-0.12683608 0.1148198 0.36214885
-0.12498474 0.11526052 0.36221132
-0.12300805 0.11502333 0.36221132
-0.121126 0.11503647 0.36221132
-0.11908096 0.11496315 0.36221132
-0.11703948 0.11489123 0.36221132
-0.11500198 0.11482086 0.36221132
-0.11298164 0.11516047 0.36221132
-0.11095107 0.11509272 0.36221129
-0.10892376 0.1150263 0.36221132
-0.10690821 0.11497014 0.36223903
-0.10490358 0.11492413 0.36229464
-0.10289778 0.11487511 0.36233628
-0.1008945 0.11482755 0.36237797
-0.099017218 0.11501919 0.3624256
-0.0969074 0.11514332 0.36246127
-0.094906174 0.11509297 0.3624821
-0.092920795 0.11506039 0.36255503
-0.090932339 0.11502264 0.36260709
-0.088943347 0.11498272 0.36264873
-0.086961657 0.11495092 0.36271122
-0.084967032 0.11490043 0.36271125
-0.082975082 0.11485132 0.36271122
-0.080992356 0.11481326 0.36274248
-0.079025581 0.11518892 0.36279458
-0.077057607 0.11516973 0.36287794
-0.07507953 0.11513428 0.36290571
-0.073108815 0.11510891 0.36296126
-0.071136922 0.11508027 0.3630029
-0.069000505 0.11516706 0.36305052
-0.06711439 0.11495315 0.36317992
-0.06487526 0.11506464 0.36335006
-0.062931292 0.11508285 0.36352369
-0.060980227 0.11508904 0.3636556
-0.059013698 0.11506561 0.36369035
-0.057037566 0.11502145 0.3636556
-0.055061173 0.11497409 0.36360702
-0.053084891 0.11492351 0.36354452
-0.051119473 0.11489382 0.36354446
-0.049155567 0.11486538 0.36354452
-0.046805918 0.11484594 0.36358616
-0.044849802 0.11483309 0.36362782
-0.042887975 0.11480394 0.36361396
-0.04100313 0.11492606 0.36356115
-0.038972344 0.11515296 0.36358616
-0.037021849 0.11515125 0.36364865
-0.035069603 0.11514422 0.36369035
-0.03320111 0.11492153 0.36381114
-0.031166643 0.11513332 0.36377361
-0.028821653 0.11511315 0.36377361
-0.02686833 0.11509755 0.36377364
-0.024915777 0.11508315 0.36377361
-0.022967786 0.1150896 0.36383614
-0.021017328 0.11508399 0.363857
-0.019071622 0.11510582 0.36396113
-0.017641293 0.11523297 0.36396113
-0.12646534 0.11642575 0.36208633
-0.12483095 0.11663679 0.36208633
-0.12304337 0.11663963 0.3621363
-0.12116485 0.11665578 0.36214882
-0.11900557 0.11674989 0.36213988
-0.11709116 0.11691797 0.36214879
-0.11505919 0.11685292 0.36216962
-0.11303127 0.11718491 0.36214882
-0.11099961 0.11711583 0.36214885
-0.1089712 0.11704809 0.36214882
-0.10694643 0.11698192 0.36214879
-0.10492478 0.11691707 0.36214882
-0.10292435 0.11687397 0.36221132
-0.10090877 0.11681192 0.36221132
-0.098931231 0.11718604 0.36229461
-0.096948914 0.11716018 0.36239877
-0.09495768 0.11712241 0.3624613
-0.092952371 0.11706561 0.3624613
-0.090953499 0.11701471 0.36247519
-0.088965572 0.11697621 0.36252379
-0.086973295 0.11693026 0.36254463
-0.084978282 0.11687881 0.36254463
-0.082992263 0.11683769 0.36257237
-0.081028469 0.11682691 0.36269042
-0.079054072 0.11719235 0.36271122
-0.07707414 0.11715594 0.36274251
-0.0751049 0.11713437 0.36281538
-0.07312645 0.11709718 0.36283624
-0.071162187 0.11708143 0.36291957
-0.068955339 0.11712978 0.36296123
-0.067067906 0.11695324 0.36303625
-0.064895637 0.11706085 0.36325285
-0.062957019 0.11709046 0.36346117
-0.061000418 0.11708777 0.36356533
-0.059030853 0.11705942 0.36358616
-0.05704971 0.11700545 0.36352363
-0.055070739 0.11695276 0.36346117
-0.053100217 0.11691466 0.3634403
-0.051128283 0.11687098 0.36339867
-0.049169581 0.11685541 0.36344036
-0.046816628 0.11682888 0.36346117
-0.044854831 0.11680241 0.36346117
-0.042800032 0.11707959 0.3634612
-0.040937319 0.11715105 0.3634403
-0.038979754 0.11713033 0.36344731
-0.037023839 0.11711296 0.36346117
-0.035071507 0.11710563 0.36350286
-0.033117693 0.11709276 0.36352363
-0.031169394 0.11709896 0.36360005
-0.028826395 0.11708739 0.36362782
-0.026872722 0.11707149 0.36362782
-0.024924546 0.11707922 0.36369726
-0.022974094 0.11707675 0.36373198
-0.02102712 0.11709341 0.36382222
-0.019076798 0.11709318 0.36385694
-0.01712925 0.11711211 0.36394727
-0.015310382 0.11764736 0.36396113
-0.10494532 0.11812212 0.36208633
-0.10294523 0.11847338 0.36210716
-0.10095909 0.11883936 0.36216965
-0.098969221 0.11919969 0.36221132
-0.09697482 0.11915952 0.36227381
-0.094988286 0.11912777 0.36235714
-0.092992917 0.1190835 0.36239877
-0.09098959 0.11902709 0.36239877
-0.089004137 0.11899252 0.36246127
-0.087005846 0.1189388 0.3624613
-0.085009977 0.11888636 0.36246127
-0.083021499 0.11884213 0.3624821
-0.081046797 0.11881622 0.36255503
-0.079088293 0.11898176 0.36267552
-0.077030577 0.11901417 0.36271125
-0.075128347 0.11913285 0.36271122
-0.073153354 0.11910167 0.36275291
-0.07118015 0.11907192 0.36279455
-0.068817988 0.11904429 0.36286402
-0.066858239 0.11903553 0.36296126
-0.064914204 0.11905529 0.36314175
-0.062972553 0.11908077 0.36333618
-0.061016627 0.11908033 0.36344731
-0.059045341 0.11904915 0.36346117
-0.05706913 0.11900556 0.36343339
-0.055090442 0.11895407 0.36337784
-0.053107984 0.11889029 0.36328059
-0.051137675 0.11885036 0.36325285
-0.049176704 0.11882991 0.36328062
-0.046834946 0.11883235 0.36339176
-0.044875797 0.11881446 0.3634195
-0.043023683 0.11900621 0.36337188
-0.040949415 0.11914212 0.36333618
-0.038990494 0.11911871 0.36333618
-0.037032563 0.11909639 0.36333618
-0.035081748 0.11909574 0.36339867
-0.03313116 0.11909635 0.36346117
-0.031175494 0.11907765 0.36346117
-0.028832985 0.11907035 0.36350283
-0.026885077 0.11908142 0.36358616
-0.024935441 0.11908694 0.36364865
-0.022985939 0.11909349 0.36371115
-0.02103745 0.11910811 0.36379448
-0.019086581 0.11911018 0.36383614
-0.017135629 0.11911348 0.3638778
-0.014796026 0.11912981 0.36396113
-0.012974064 0.11925745 0.36396113
-0.09878543 0.12059299 0.36211756
-0.096919887 0.12099968 0.36216134
-0.094998308 0.12110824 0.36216962
-0.093002535 0.12106325 0.36221132
-0.091002315 0.12101037 0.36222517
-0.089007951 0.12096337 0.36225295
-0.087022752 0.12092715 0.3623085
-0.085037775 0.12088991 0.36235711
-0.083051763 0.12084953 0.36239183
-0.081080101 0.1208289 0.3624821
-0.079112023 0.12091094 0.36257064
-0.077218726 0.12094767 0.36263624
-0.075161196 0.12114757 0.36264876
-0.072943151 0.12118223 0.36266127
-0.07104671 0.12099369 0.36271125
-0.068830691 0.12102721 0.36271122
-0.066869803 0.12101697 0.36280498
-0.06493596 0.12105673 0.36304459
-0.062988818 0.12107339 0.36321118
-0.061031103 0.12107047 0.36331534
-0.059060428 0.12104101 0.36333618
-0.057078168 0.12098504 0.36327371
-0.055098087 0.12093039 0.36321118
-0.053126469 0.12089086 0.36319032
-0.051153451 0.12084554 0.36314869
-0.049190879 0.12082239 0.36316952
-0.046842128 0.12080866 0.36323202
-0.04489233 0.12120814 0.36329451
-0.042819969 0.12096224 0.36333615
-0.040973712 0.12117067 0.36333618
-0.039013587 0.12114681 0.36333615
-0.037054464 0.12112408 0.36333618
-0.035096426 0.12110261 0.36333615
-0.033144917 0.12110311 0.36339867
-0.031193836 0.12110487 0.3634612
-0.02884669 0.12108353 0.3634612
-0.026900828 0.12110864 0.36358616
-0.024950497 0.12111653 0.3636556
-0.023000645 0.12112784 0.36373198
-0.021052191 0.12114957 0.36383611
-0.019097656 0.12113775 0.36383614
-0.017143669 0.12112721 0.36383611
-0.014801686 0.12113447 0.36389172
-0.012849312 0.12113567 0.36391947
-0.010995339 0.1212446 0.36396116
-0.0089462912 0.12194894 0.36396113
-0.094622731 0.12270425 0.36208633
-0.093017332 0.12265649 0.36208633
-0.091029972 0.12301424 0.36210716
-0.089038305 0.12297109 0.36214882
-0.087054007 0.1229366 0.36221132
-0.085056767 0.12288213 0.36221132
-0.083066978 0.12283619 0.36223212
-0.081024423 0.12306274 0.36233628
-0.079135276 0.12298084 0.36244345
-0.077155761 0.1231712 0.3624613
-0.075174756 0.12313282 0.36248907
-0.072896339 0.12308599 0.36250818
-0.070985936 0.12304489 0.36251482
-0.068844147 0.12301239 0.36255848
-0.066882215 0.12300078 0.36264876
-0.064938627 0.12302346 0.36283624
-0.06299489 0.12304728 0.36302373
-0.061034638 0.1230396 0.363114
-0.059066083 0.12301433 0.36314869
