# .PCD v0.7 - Point Cloud Data file format
VERSION 0.7
FIELDS x y z
SIZE 4 4 4
TYPE F F F
COUNT 1 1 1
WIDTH 1412
HEIGHT 1
VIEWPOINT 0 0 0 1 0 0 0
POINTS 1412
DATA ascii
-0.25084394 0.10111623 0.35552451
-0.24875051 0.10092758 0.35533702
-0.24688464 0.10082943 0.35546201
-0.24484494 0.10093766 0.35543704
-0.2428783 0.10092479 0.35523292
-0.24096785 0.10121155 0.35521206
-0.23894204 0.10103909 0.35505584
-0.23694625 0.10087714 0.35493085
-0.23490377 0.10097162 0.35483709
-0.23308748 0.10101036 0.35479543
-0.23121206 0.10089425 0.35481623
-0.22909497 0.10102779 0.35494423
-0.22660339 0.1010371 0.35489959
-0.22471856 0.10091103 0.35486835
-0.22276545 0.10103069 0.35483709
-0.22095324 0.10105893 0.3547329
-0.21909593 0.10093984 0.3547121
-0.21736088 0.10099964 0.3547121
-0.21499737 0.10110501 0.3547121
-0.21275555 0.1009866 0.35477459
-0.21099468 0.10090598 0.35486832
-0.2092205 0.1008178 0.35493085
-0.20704973 0.10112903 0.35503152
-0.20491785 0.10105721 0.35523286
-0.20320843 0.10099689 0.35537872
-0.20107682 0.10092278 0.35555923
-0.19890051 0.10082484 0.35564947
-0.19714916 0.10113893 0.35564947
-0.19497125 0.10103639 0.35571197
-0.19281721 0.1009445 0.35580572
-0.19110921 0.10087766 0.35589948
-0.18896447 0.10118527 0.35594416
-0.18696475 0.10163039 0.35596195
-0.18552677 0.1018281 0.35596198
0.067475602 0.10104349 0.35483709
-0.25448304 0.10308094 0.35558701
-0.25304261 0.10299326 0.35564947
-0.25098142 0.10281746 0.35552454
-0.24886143 0.10289539 0.35541201
-0.24705267 0.10295018 0.35546204
-0.24518144 0.1029769 0.35541201
-0.2430709 0.10305101 0.35527453
-0.2411402 0.10291888 0.35527456
-0.23893087 0.10294454 0.35496208
-0.23695885 0.10291833 0.3547121
-0.23519477 0.10297996 0.35476211
-0.23322895 0.10310328 0.35477459
-0.23131768 0.10296939 0.35474333
-0.22907919 0.10286713 0.35492042
-0.22669943 0.10310417 0.35481629
-0.22476681 0.10295412 0.3547121
-0.22301216 0.10300861 0.3547121
-0.22106475 0.10312682 0.35468087
-0.21916074 0.10298391 0.35458711
-0.21732172 0.1028697 0.35458711
-0.21496736 0.10304716 0.35463396
-0.21284211 0.10303563 0.35469127
-0.21103662 0.10293209 0.3547121
-0.20924921 0.1028358 0.35475376
-0.20705549 0.10313413 0.35481629
-0.20490894 0.10305371 0.35499334
-0.20318721 0.10298596 0.35511833
-0.20106499 0.10291529 0.35531619
-0.19888441 0.10281326 0.35539952
-0.19714487 0.10313192 0.35542035
-0.19500071 0.10304521 0.35554537
-0.19285138 0.10295434 0.3556495
-0.19113697 0.10288309 0.3557328
-0.18910061 0.10301619 0.35576555
-0.18680471 0.1030719 0.35577449
-0.18512695 0.1030166 0.35589951
-0.18321487 0.10313796 0.35596198
0.065351538 0.10351334 0.35492039
0.066410743 0.10230717 0.35521206
-0.25442383 0.10511889 0.35525373
-0.25302753 0.10504784 0.35537872
-0.25115681 0.10494824 0.35552451
-0.2493116 0.10498836 0.35553703
-0.24724597 0.10508435 0.35549325
-0.24525316 0.10492793 0.35543078
-0.24329053 0.10478255 0.35539955
-0.24137704 0.10506576 0.35537872
-0.23929699 0.10499237 0.35498708
-0.23716259 0.1050445 0.35477459
-0.23535889 0.10496037 0.35493085
-0.23343778 0.1048225 0.35489959
-0.2310005 0.10503727 0.35473984
-0.22872293 0.10491536 0.35485792
-0.22682512 0.1051865 0.35477459
-0.22489735 0.10503625 0.35468087
-0.2229775 0.10488764 0.35458711
-0.2210023 0.10499082 0.35451213
-0.21920304 0.10501852 0.35442045
-0.2169468 0.10489357 0.35448992
-0.2146875 0.10516705 0.35449338
-0.21288143 0.10506282 0.35452461
-0.21109977 0.10496938 0.35458711
-0.20930509 0.10486802 0.35461834
-0.2069913 0.10505427 0.35468084
-0.20490293 0.10505158 0.35475376
-0.20318066 0.10498235 0.35487875
-0.20104814 0.10490497 0.3550593
-0.1989059 0.10482132 0.35521206
-0.19717178 0.10514145 0.3552433
-0.19504388 0.10506213 0.35539952
-0.19288786 0.10496616 0.35549325
-0.19116145 0.10488717 0.35555577
-0.18889867 0.10496157 0.35564056
-0.18684454 0.10508132 0.35562864
-0.18512262 0.10500019 0.3556703
-0.18302116 0.10492613 0.35580921
-0.18114376 0.10506477 0.35593075
0.061338142 0.10592702 0.35446215
0.062984407 0.10537229 0.35514957
0.0640935 0.10455074 0.35496208
-0.25412911 0.1070568 0.35458711
-0.25291193 0.10705955 0.35496208
-0.25124753 0.10704571 0.35539955
-0.24915925 0.10703719 0.35563698
-0.24702774 0.10680874 0.35568076
-0.24488544 0.10705479 0.35558701
-0.24294376 0.10691621 0.35558701
-0.24081011 0.10729611 0.35546198
-0.23922272 0.1067973 0.35504541
-0.23692797 0.10715855 0.35489064
-0.23482116 0.10692406 0.35501567
-0.23276691 0.10704382 0.3549121
-0.23068991 0.10710993 0.35474336
-0.2287859 0.10697265 0.3547121
-0.22678666 0.10706947 0.35463712
-0.22491236 0.107066 0.35446215
-0.22301127 0.10692374 0.35439965
-0.22120659 0.10694873 0.35431218
-0.21926105 0.10706158 0.35427469
-0.21699913 0.10693184 0.35433713
-0.21478379 0.10682313 0.35446212
-0.21297388 0.10711779 0.35444129
-0.21116604 0.10700971 0.35446212
-0.20892394 0.10688135 0.35450378
-0.20672366 0.10717304 0.35455585
-0.20495951 0.1070821 0.35461834
-0.20320049 0.10699256 0.35468087
-0.20107687 0.10691869 0.35487875
-0.19891238 0.10682167 0.35499334
-0.19706008 0.10728258 0.35514063
-0.19497569 0.10697348 0.35525891
-0.19296096 0.10699918 0.35539952
-0.19122219 0.10691226 0.35544121
-0.1891712 0.10691433 0.35549328
-0.1868757 0.1070866 0.35546201
-0.18514755 0.10700058 0.35549325
-0.18305422 0.10693016 0.35564947
-0.18098183 0.10687079 0.35583699
-0.17976986 0.1072501 0.35596198
0.052629545 0.10754387 0.35508707
0.054836839 0.10662951 0.35454547
0.060312722 0.10613111 0.35521206
-0.25285101 0.10876007 0.35442045
-0.25082466 0.10909906 0.35523978
-0.24869759 0.10906094 0.35571197
-0.24673851 0.10891645 0.35571197
-0.24480155 0.10919062 0.35568076
-0.24287994 0.10905881 0.355712
-0.24083918 0.10887139 0.35555577
-0.23870814 0.10917573 0.35503706
-0.2369159 0.1090219 0.35493711
-0.23475713 0.10912817 0.35496208
-0.2327944 0.10896584 0.35486832
-0.23084004 0.10880537 0.35477459
-0.22893304 0.10907122 0.35469127
-0.22703031 0.10905416 0.35448712
-0.22498977 0.10912631 0.35433716
-0.22306769 0.10897143 0.35424343
-0.22119232 0.1088375 0.35421216
-0.21934818 0.10912039 0.35417047
-0.21707177 0.10898146 0.35421216
-0.21482962 0.10885752 0.35429549
-0.21305667 0.10916941 0.35433716
-0.2112909 0.10908139 0.35443085
-0.20904064 0.10894716 0.35446212
-0.20678049 0.10880546 0.35446212
-0.20501916 0.10911546 0.35448292
-0.20324709 0.10901757 0.35452461
-0.20110069 0.10893035 0.35468429
-0.19898002 0.10885572 0.35487878
-0.19725682 0.10917962 0.35493085
-0.19513817 0.10910317 0.3551079
-0.19298556 0.10900634 0.35521206
-0.1912573 0.10892387 0.35527456
-0.18897116 0.10898217 0.35531917
-0.18690939 0.10909409 0.35529539
-0.18521847 0.10902867 0.35539952
-0.18310411 0.10894506 0.35551757
-0.18106598 0.1089057 0.35577449
-0.17986198 0.10889315 0.35596195
0.051745772 0.10805286 0.35421216
-0.25085858 0.11117383 0.35502458
-0.24896863 0.11124103 0.35583699
-0.24691987 0.11105434 0.355712
-0.24488059 0.11086963 0.35558701
-0.24291196 0.11099808 0.35566202
-0.24097912 0.11098403 0.35550368
-0.23878446 0.11112875 0.35505584
-0.23680316 0.11096012 0.35496208
-0.23473525 0.1110309 0.35483712
-0.23285945 0.11103199 0.3547121
-0.23091048 0.1108714 0.35462877
-0.22896902 0.11111836 0.35449335
-0.22700942 0.11094766 0.35436839
-0.22498019 0.11102281 0.35423717
-0.22325496 0.11088381 0.35416216
-0.22138281 0.1103461 0.3540872
-0.21849722 0.11070746 0.35408717
-0.21670647 0.11101282 0.35411841
-0.21492878 0.11092035 0.35421216
-0.21311881 0.11080979 0.35424343
-0.21092708 0.11110831 0.35433716
-0.20873155 0.11100096 0.35446212
-0.20692253 0.11088544 0.35446212
-0.20514773 0.1111873 0.35446212
-0.20308669 0.11114059 0.35446212
-0.20096938 0.11086452 0.3545371
-0.19900343 0.11086655 0.35468087
-0.19696371 0.11107866 0.35477462
-0.19488494 0.11119721 0.35485497
-0.19299018 0.11100253 0.35498288
-0.19096881 0.11102035 0.35510269
-0.18898554 0.11082131 0.35517037
-0.18697277 0.11112002 0.35518083
-0.18485047 0.11103185 0.35529542
-0.18276082 0.11096187 0.35546201
-0.18113649 0.11093387 0.35568076
-0.17951468 0.11090712 0.35589948
-0.25094703 0.11298561 0.3547121
-0.24903092 0.1129183 0.355712
-0.24692293 0.11298627 0.35561204
-0.24496317 0.11296236 0.35544121
-0.24309185 0.11297641 0.35538703
-0.24096011 0.11302456 0.35521206
-0.23890483 0.11282136 0.35502458
-0.23690872 0.11305219 0.35485792
-0.23495953 0.1130181 0.35463709
-0.23284563 0.11306112 0.35443085
-0.23090956 0.11290396 0.35436839
-0.22887917 0.11298148 0.35426217
-0.22704768 0.11299392 0.35417047
-0.225282 0.11257794 0.35412884
-0.21481198 0.11240479 0.3540872
-0.21321346 0.11287066 0.35414967
-0.2110142 0.11316395 0.354233
-0.20882303 0.11305755 0.35436839
-0.2070491 0.11295957 0.35443085
-0.20526239 0.11285317 0.35446212
-0.20301941 0.11311296 0.35442048
-0.20080344 0.11298466 0.35446212
-0.19904141 0.1128862 0.35450375
-0.19728288 0.11318766 0.35449338
-0.19509394 0.11306801 0.35454544
-0.19292352 0.11295711 0.35461837
-0.19099641 0.11281469 0.35481209
-0.18884782 0.113184 0.35481921
-0.18697302 0.11310911 0.35494125
-0.18488811 0.1130423 0.35512871
-0.1828295 0.11299074 0.35535789
-0.18118829 0.11295211 0.35554537
-0.17914861 0.11291066 0.35579529
-0.17724679 0.11340179 0.35596195
-0.25085869 0.11503169 0.35469648
-0.24898833 0.11496053 0.35537872
-0.24714363 0.11498944 0.35538703
-0.24492694 0.11500079 0.35511833
-0.24291633 0.1148207 0.35502458
-0.24098717 0.11508692 0.35498294
-0.23898689 0.11490665 0.35487875
-0.23698966 0.11513414 0.3547121
-0.23491032 0.1149098 0.35446212
-0.23290384 0.11512568 0.35425386
-0.2309528 0.11495855 0.35417053
-0.22917104 0.11453581 0.35412884
-0.22759798 0.11469059 0.35408717
-0.21284156 0.1144947 0.35408717
-0.21096382 0.11497878 0.3541407
-0.20891772 0.11511791 0.35427466
-0.20711803 0.11500434 0.35429549
-0.20533615 0.11489922 0.35433719
-0.20307995 0.11514955 0.35427466
-0.20083895 0.11500501 0.35427466
-0.19905268 0.11489113 0.35427466
-0.19719286 0.11501852 0.35426217
-0.1950471 0.11503527 0.35421216
-0.19289351 0.1149323 0.35431632
-0.19118698 0.1148583 0.35442045
-0.18921018 0.11501791 0.35456923
-0.18696451 0.11509296 0.35468087
-0.18488455 0.11502814 0.35487875
-0.18283083 0.11497873 0.35511833
-0.18096532 0.11486808 0.35538703
-0.17902172 0.11499592 0.35563701
-0.17711279 0.11485612 0.35580575
-0.17514129 0.11528862 0.35589948
-0.17295563 0.11590631 0.35596198
-0.25239491 0.11749882 0.35427463
-0.25088686 0.11694859 0.35458711
-0.24889082 0.11697639 0.35496208
-0.2469704 0.11684079 0.35502458
-0.24500962 0.11709574 0.35496208
-0.24303313 0.11692911 0.35492042
-0.24103177 0.11715824 0.35477459
-0.23903722 0.11697786 0.35468087
-0.23689409 0.11700694 0.35446215
-0.23495197 0.11697024 0.3542538
-0.23299268 0.11720662 0.35411841
-0.231512 0.11666386 0.35408717
-0.2111408 0.11604749 0.35408717
-0.20882283 0.11701431 0.35412884
-0.20720181 0.11705887 0.3541809
-0.2049619 0.11691812 0.35421216
-0.20267639 0.11674862 0.35414964
-0.20088361 0.1166314 0.35414964
-0.19909646 0.11651572 0.35414964
-0.19746093 0.11654284 0.35412884
-0.19287792 0.11651716 0.35408717
-0.19119281 0.11685354 0.35418093
-0.18897271 0.11706369 0.35430592
-0.18698061 0.1170921 0.35446212
-0.18489812 0.11702473 0.35465655
-0.18283479 0.11696849 0.35487875
-0.18104272 0.11705415 0.35512277
-0.17906365 0.1167922 0.35536832
-0.17710473 0.11683632 0.35554537
-0.1750555 0.11718241 0.35571197
-0.17298117 0.11711362 0.35586825
-0.17110808 0.11724428 0.35596198
-0.25271764 0.11888821 0.35455585
-0.25069258 0.1187046 0.35449338
-0.24887018 0.11902759 0.35464963
-0.24699239 0.11891011 0.35477459
-0.24516051 0.11922501 0.35489959
-0.24318919 0.11905853 0.35486832
-0.24111979 0.11884173 0.35468087
-0.23907739 0.11904495 0.35446215
-0.2371469 0.11901408 0.35428715
-0.23506606 0.11906798 0.35414964
-0.23355633 0.11850993 0.35408717
-0.20497949 0.11813185 0.35408717
-0.19078407 0.11804048 0.35408717
-0.18910781 0.11877815 0.35413715
-0.18696605 0.11907205 0.35418093
-0.18488491 0.11900448 0.35437879
-0.182814 0.11894234 0.35458711
-0.18120354 0.11892211 0.35483709
-0.17915171 0.11887074 0.35506627
-0.17712477 0.11883515 0.35533702
-0.17497167 0.11907796 0.35552451
-0.17298509 0.11909992 0.3556287
-0.17094047 0.11904922 0.35583699
-0.16894318 0.11913396 0.35593694
-0.1676257 0.11972777 0.35596198
0.052894894 0.11882868 0.355712
-0.25326166 0.12080002 0.35508707
-0.25113052 0.12085221 0.35498708
-0.24918233 0.12124018 0.35480586
-0.24721393 0.12107751 0.35480583
-0.2453405 0.12095958 0.35493085
-0.24319883 0.12099409 0.35476211
-0.24116419 0.12091496 0.35446212
-0.23914193 0.12112504 0.35427469
-0.2371535 0.12093958 0.3541809
-0.23532069 0.12062617 0.3540872
-0.18656027 0.12025876 0.35408717
-0.18459065 0.12070733 0.35414967
-0.18280657 0.12092471 0.35431632
-0.18118513 0.12089679 0.35454544
-0.17912942 0.12084201 0.35476765
-0.17711614 0.12081505 0.35506627
-0.17520395 0.12100639 0.35528347
-0.17301144 0.12110206 0.35543078
-0.17096095 0.12104668 0.35562864
-0.16887495 0.12096482 0.35574323
-0.16700679 0.121004 0.35593694
-0.25414929 0.12310094 0.35533702
-0.25261009 0.12295193 0.35527456
-0.25083074 0.12336961 0.35525373
-0.24898557 0.12299547 0.35499331
-0.247279 0.12268853 0.35492042
-0.24516539 0.12306693 0.35485792
-0.24341556 0.12287086 0.35468087
-0.24131845 0.12304488 0.35439965
-0.23925546 0.12282183 0.35421216
-0.23726533 0.12263339 0.35411841
-0.18285514 0.12294455 0.35414964
-0.18121147 0.12290145 0.35433713
-0.17916894 0.1228551 0.35458711
-0.1771304 0.12281054 0.35483709
-0.17500767 0.12307313 0.35508707
-0.17303002 0.12309942 0.35521206
-0.17097718 0.12304159 0.35540649
-0.16890194 0.12296649 0.35554537
-0.16695169 0.12290915 0.355712
-0.16496356 0.12284351 0.3558549
-0.16330284 0.12333573 0.35596195
-0.25277892 0.12510675 0.35521206
-0.25083518 0.12495746 0.35527456
-0.2488341 0.12477736 0.3552433
-0.24676752 0.12497485 0.35504541
-0.24463841 0.12513584 0.35474336
-0.24260055 0.12492803 0.35461834
-0.2405488 0.1251207 0.35439962
-0.23921108 0.12437173 0.35417047
-0.18252449 0.12497652 0.3540872
-0.18088408 0.12493537 0.35428163
-0.17882662 0.12487835 0.35450378
-0.17703043 0.12495884 0.35472995
-0.17515177 0.12492547 0.35492042
-0.17306603 0.1251097 0.35502458
-0.17100884 0.12504828 0.35521206
-0.16894096 0.12497776 0.35536826
-0.16687812 0.12490943 0.35552451
-0.16481957 0.12484294 0.35568076
-0.16319032 0.12480216 0.35583699
-0.16171433 0.12517376 0.35596195
-0.25445074 0.12698404 0.35521206
-0.25299722 0.12687439 0.35527456
-0.25113937 0.12676714 0.35546201
-0.24921435 0.12703876 0.35548282
-0.24700662 0.1271617 0.35508707
-0.24478304 0.12685883 0.3547121
-0.24272189 0.12692626 0.35466212
-0.24079938 0.12701675 0.35436216
-0.18097556 0.12698747 0.35419133
-0.17892519 0.12693538 0.35443088
-0.17687948 0.12688559 0.35467044
-0.17470674 0.12703843 0.35478708
-0.17313494 0.12714523 0.35489956
-0.17104962 0.12706263 0.35503155
-0.16900223 0.12700681 0.35523286
-0.16695279 0.12694818 0.35542038
-0.16489755 0.126884 0.35558701
-0.16285972 0.1268319 0.35578144
-0.16099222 0.12733768 0.35596195
-0.25458422 0.12871245 0.35514957
-0.25318876 0.12904662 0.35523286
-0.25134322 0.12894471 0.35544121
-0.24941607 0.12921375 0.35546201
-0.24717782 0.12890382 0.35508707
-0.24502344 0.12904683 0.35475376
-0.24310079 0.12901667 0.35463709
-0.24085437 0.12898014 0.35430592
-0.18098664 0.12895548 0.35416526
-0.17902642 0.12899674 0.35435796
-0.17696679 0.12893701 0.35457322
-0.1749709 0.12902376 0.3547121
-0.17320612 0.12918401 0.35477459
-0.17113622 0.12911232 0.35494125
-0.16909039 0.12905779 0.35514957
-0.1670295 0.12899029 0.35531619
-0.16496325 0.12891725 0.35546201
-0.16293992 0.12887655 0.35569116
-0.16091049 0.12883022 0.35589948
-0.15929088 0.12958798 0.35596198
-0.25261137 0.13131773 0.35525373
-0.25085735 0.13098326 0.35543701
-0.24900877 0.13087371 0.35533702
-0.24726196 0.1308939 0.35506207
-0.24525338 0.13123299 0.35477459
-0.24316481 0.13099067 0.35458711
-0.24110681 0.13055095 0.35421216
-0.18080163 0.13112637 0.35414964
-0.17912488 0.13105831 0.35427466
-0.17707048 0.13100229 0.35450378
-0.17497891 0.13091755 0.3546496
-0.17287277 0.13081986 0.35475376
-0.17081864 0.13115734 0.35489962
-0.16916128 0.13109766 0.35502458
-0.16712184 0.13104667 0.35523984
-0.16506995 0.13098486 0.35542035
-0.1630289 0.13093039 0.35561478
-0.16098531 0.13087277 0.35579529
-0.15906666 0.13105032 0.35594416
-0.15729474 0.13154803 0.35596198
-0.25243056 0.13275178 0.35525373
-0.25057006 0.13299797 0.35528702
-0.24869609 0.13295467 0.35513705
-0.24699326 0.13316037 0.35489959
-0.24523582 0.13281192 0.35475376
-0.24324921 0.13297817 0.3545621
-0.24143785 0.13309574 0.35421216
-0.18073066 0.1326316 0.3540872
-0.17922616 0.13312423 0.3541913
-0.17715597 0.13305649 0.35439268
-0.175056 0.1329648 0.35452461
-0.17296857 0.13288082 0.35467041
-0.17087787 0.13318998 0.35474336
-0.16883528 0.13313746 0.35496208
-0.16679645 0.13308698 0.35518083
-0.1651741 0.13305281 0.35536829
-0.16311373 0.13298286 0.35552454
-0.16107169 0.13292658 0.355712
-0.15900587 0.1328491 0.35583699
-0.15694439 0.13277368 0.35596198
-0.15545146 0.1336578 0.35596195
-0.25229219 0.13489413 0.3547121
-0.25099012 0.13513558 0.35494125
-0.24870118 0.13507494 0.35496208
-0.24667948 0.13486917 0.35489959
-0.24452648 0.13488176 0.3547371
-0.24258074 0.13524446 0.35452461
-0.24090311 0.13499287 0.35421216
-0.23988895 0.13529389 0.35408717
-0.17871703 0.13507049 0.35411221
-0.17679076 0.13507082 0.35424343
-0.17515078 0.1350275 0.35443088
-0.17305644 0.13493784 0.35456625
-0.17097227 0.13485429 0.3547121
-0.16889329 0.13477311 0.35485792
-0.16689478 0.13515261 0.3551079
-0.16484386 0.13509139 0.35529533
-0.16277778 0.13501632 0.35544118
-0.16112262 0.13495302 0.35554537
-0.15906189 0.1348794 0.35568422
-0.156993 0.1347971 0.35579529
-0.15493207 0.13511597 0.35585785
-0.15301754 0.13518204 0.35596195
-0.25206158 0.13699523 0.35452461
-0.25091922 0.13704664 0.35502458
-0.2490392 0.13691959 0.35518083
-0.24697036 0.13668662 0.35505584
-0.24509509 0.13709246 0.35496208
-0.24282372 0.13703258 0.35461837
-0.24063744 0.13713427 0.35421216
-0.23957926 0.1369971 0.35408717
-0.17810257 0.13636054 0.35408717
-0.17687935 0.13713098 0.35412884
-0.17490768 0.13716012 0.35429031
-0.17290087 0.13686958 0.35448
-0.1710612 0.13691397 0.35460794
-0.16900696 0.13685258 0.35480931
-0.16697586 0.13720632 0.35499334
-0.16492827 0.13714778 0.35519123
-0.16284615 0.13705909 0.35530579
-0.16118518 0.13699061 0.35539952
-0.15908888 0.13688605 0.35546204
-0.15700451 0.13718596 0.35548285
-0.15494891 0.13711217 0.35561478
-0.15289129 0.137035 0.35573283
-0.15096989 0.13708915 0.35589948
-0.1492528 0.13774289 0.35596198
-0.25275338 0.13881087 0.35452464
-0.25115317 0.13883847 0.35508707
-0.24927047 0.13870941 0.35524333
-0.24719918 0.13910605 0.35533708
-0.24497396 0.13920823 0.35533702
-0.24303328 0.13874526 0.35492042
-0.24123287 0.13877267 0.35462877
-0.23899899 0.13919453 0.35433716
-0.23750301 0.13944899 0.35421216
-0.17657235 0.13919365 0.35408717
-0.1749202 0.13914068 0.35425386
-0.17285869 0.13907629 0.35446212
-0.17117758 0.13899799 0.35455588
-0.16912967 0.13894203 0.35477459
-0.16707098 0.13887595 0.35496208
-0.16488554 0.13896731 0.35510492
-0.16291706 0.1391059 0.3551704
-0.16121233 0.1389994 0.3551704
-0.15909964 0.13887924 0.3551982
-0.15701178 0.139175 0.35521206
-0.15496159 0.13910513 0.35535789
-0.15291081 0.13903332 0.35549325
-0.1509086 0.13900442 0.35573283
-0.14890474 0.13897339 0.35596198
-0.25262082 0.14021389 0.35483709
-0.25098196 0.14091563 0.35523286
-0.24898408 0.1409371 0.35544121
-0.24681653 0.14121529 0.35558701
-0.2448177 0.14101431 0.35555577
-0.24274224 0.14076635 0.35539952
-0.24070105 0.1409491 0.35521203
-0.23872055 0.14121963 0.35483709
-0.23706025 0.14060771 0.35433713
-0.23579073 0.141462 0.35421216
-0.17669258 0.14088435 0.35408717
-0.17503889 0.14083043 0.35425386
-0.17297544 0.14076489 0.35446212
-0.17094578 0.14112449 0.35467041
-0.1688807 0.14105499 0.35485792
-0.16721053 0.1409831 0.35496208
-0.16520259 0.1409744 0.35500896
-0.16295661 0.1411273 0.35496208
-0.161001 0.14108695 0.35496208
-0.15894961 0.14079097 0.35496208
-0.15695743 0.14102115 0.35501206
-0.15500681 0.1411282 0.35517037
-0.15298633 0.14108385 0.35537872
-0.15098122 0.14105289 0.35561478
-0.14898165 0.14102648 0.35585785
-0.14756829 0.14119275 0.35596198
-0.25241733 0.14306557 0.35554537
-0.25111657 0.14315206 0.35566202
-0.24912739 0.1432582 0.35577449
-0.24722478 0.14311451 0.35589948
-0.24517868 0.14288536 0.35580575
-0.24307179 0.14291494 0.355712
-0.24127349 0.1430603 0.35561198
-0.23899932 0.14298247 0.35524333
-0.23666057 0.14297539 0.35458711
-0.23496671 0.14351633 0.35408717
-0.17642598 0.14298472 0.35411841
-0.17493875 0.1428141 0.35426575
-0.17312384 0.14288089 0.35446212
-0.17107201 0.14322299 0.35462877
-0.16897006 0.14312264 0.35474336
-0.1669033 0.14305009 0.35492042
-0.16477779 0.14292525 0.35496208
-0.16296333 0.14303118 0.35488707
-0.16113098 0.14316234 0.35478354
-0.15906809 0.14280857 0.35479018
-0.15719759 0.14299986 0.35488707
-0.15507233 0.14317112 0.35502458
-0.15306842 0.14314258 0.35527456
-0.15106764 0.14311624 0.35552451
-0.14906937 0.14309192 0.35577446
-0.14721045 0.14312831 0.355937
-0.25283432 0.14481507 0.35537872
-0.25104287 0.14530358 0.35578698
-0.24924314 0.14493403 0.35592031
-0.24791048 0.14452259 0.35596198
-0.24496748 0.14452839 0.35596195
-0.24301706 0.14511332 0.35586825
-0.2412799 0.14496507 0.35571203
-0.23928985 0.14481314 0.35539955
-0.23711018 0.14501534 0.35481209
-0.23510364 0.14483596 0.35408717
-0.17613016 0.14506453 0.35408717
-0.17491873 0.14504826 0.35427466
-0.17300865 0.14505872 0.35443711
-0.17099193 0.14480537 0.35458711
-0.16907224 0.14480469 0.3547121
-0.16697562 0.14510523 0.35476765
-0.16483243 0.14496388 0.35477459
-0.16319959 0.14500986 0.3547371
-0.16096613 0.1450907 0.35467041
-0.15882838 0.14494443 0.3546496
-0.15717189 0.14487438 0.35474336
-0.15514092 0.14482187 0.35494125
-0.15313131 0.14478838 0.3551808
-0.1510407 0.14495477 0.35547987
-0.14915945 0.14516211 0.35569116
-0.14711921 0.14509672 0.35583699
-0.14516759 0.14519814 0.35596198
-0.14344862 0.14576939 0.35596198
-0.25259036 0.14692321 0.35514957
-0.25118923 0.14689295 0.35573703
-0.24226363 0.1466115 0.35596198
-0.24066854 0.14680955 0.355712
-0.23893856 0.14692152 0.35525373
-0.23714004 0.14698538 0.35468087
-0.23539059 0.14707538 0.35417047
-0.17625581 0.14676732 0.35408717
-0.17503349 0.14714232 0.3541913
-0.17295414 0.14706434 0.35437882
-0.17083919 0.14695419 0.35448298
-0.16916132 0.14687651 0.35458708
-0.16706662 0.14717843 0.35464963
-0.16493289 0.14704469 0.35468087
-0.16319028 0.14690334 0.35461834
-0.16092631 0.14703307 0.35452461
-0.15890074 0.1469973 0.35450378
-0.15694784 0.14702614 0.35463396
-0.15496349 0.14673853 0.35480139
-0.15281755 0.14685024 0.35512871
-0.15092307 0.14701064 0.35541201
-0.14882196 0.14720242 0.35558701
-0.14677233 0.14712749 0.355712
-0.14512025 0.14705361 0.35577446
-0.14309488 0.14700003 0.35594118
-0.14145592 0.14733312 0.35596198
-0.25231561 0.14850257 0.35596198
-0.24049665 0.14861891 0.35589948
-0.23898029 0.14932828 0.35542035
-0.23720007 0.14862445 0.35475376
-0.23582014 0.14940977 0.35446212
-0.17500527 0.14909668 0.35412884
-0.17304908 0.14914389 0.35425386
-0.17093718 0.14903603 0.35436839
-0.1692529 0.14895257 0.35446212
-0.167117 0.14881881 0.35450378
-0.16499721 0.14909548 0.35450378
-0.1632726 0.14896926 0.35448298
-0.16123943 0.14904408 0.35440856
-0.15900798 0.1490846 0.35443088
-0.15691496 0.14897533 0.35450378
-0.15487237 0.14891195 0.35468084
-0.15285176 0.14886852 0.35489962
-0.15087411 0.1488665 0.35521206
-0.14872608 0.14897707 0.35537276
-0.14679573 0.14913489 0.35546204
-0.14516002 0.14907721 0.35556617
-0.14310846 0.14899632 0.3556703
-0.14110211 0.14896102 0.35587868
-0.13963731 0.14947003 0.35596195
-0.23917055 0.15105657 0.35568076
-0.2369681 0.15119582 0.35483709
-0.23521036 0.15088455 0.3542538
-0.17308278 0.15037264 0.35412884
-0.17095627 0.15065098 0.35414964
-0.16899949 0.15095934 0.35421216
-0.16705963 0.15075178 0.35430592
-0.16503963 0.15112764 0.35427469
-0.16292423 0.15100528 0.35433719
-0.16078578 0.15085861 0.35433716
-0.15909918 0.15115954 0.35431635
-0.15702435 0.15106744 0.35443437
-0.15496911 0.15099233 0.35458711
-0.15291838 0.15091982 0.35473984
-0.15089209 0.1508701 0.35494125
-0.148958 0.15091166 0.35508707
-0.1467953 0.15111849 0.35514957
-0.14515492 0.15105531 0.35524333
-0.14313243 0.15100385 0.35542035
-0.14110869 0.15094998 0.35558701
-0.13913737 0.15095155 0.35587868
-0.13752729 0.15131307 0.35596198
-0.24009712 0.15346281 0.35596198
-0.23915236 0.15265603 0.35562864
-0.23698598 0.1532042 0.35489959
-0.23489951 0.15296638 0.35442045
-0.23314194 0.15319365 0.35411841
-0.16679293 0.15247643 0.35414967
-0.16510257 0.1527811 0.35414964
-0.16287243 0.15294258 0.35414967
-0.16085675 0.15291668 0.35417047
-0.15919735 0.15324333 0.35421216
-0.15712368 0.15315241 0.35433719
-0.15505448 0.15306388 0.35446212
-0.15299003 0.15297784 0.35458708
-0.15092979 0.15289417 0.3547121
-0.14876521 0.1529872 0.35483712
-0.1468315 0.15314044 0.35492042
-0.1452031 0.15308948 0.35504541
-0.14315844 0.15301448 0.35517037
-0.14115055 0.15297744 0.35537872
-0.13917273 0.15297271 0.35565642
-0.13728108 0.15313458 0.355912
-0.25406981 0.15492733 0.35596198
-0.24041849 0.1552023 0.35577449
-0.23895121 0.15492161 0.35542035
-0.23730958 0.15507393 0.35508707
-0.23497653 0.1549264 0.35461211
-0.23300029 0.15523057 0.35430589
-0.23145585 0.15543386 0.35408717
-0.1622218 0.15467806 0.35408717
-0.16081527 0.15486266 0.3540872
-0.15886049 0.15489358 0.35414967
-0.1567722 0.15478797 0.35424343
-0.15505676 0.15497476 0.35436216
-0.15307616 0.15505263 0.35446212
-0.1509964 0.15494896 0.35454547
-0.14903609 0.15496345 0.35463396
-0.14687833 0.15517455 0.3547121
-0.14482945 0.15509619 0.35483709
-0.14279695 0.15503372 0.35499334
-0.14081761 0.15502818 0.35527456
-0.13881576 0.15499751 0.35549325
-0.1368566 0.15501454 0.35581616
-0.13527152 0.1554049 0.35596198
-0.24076371 0.1569587 0.35561824
-0.23872666 0.15717268 0.3551704
-0.23727499 0.15666406 0.35500374
-0.23544316 0.15711585 0.35466212
-0.23327956 0.15707229 0.35443088
-0.23135166 0.15692472 0.35417047
-0.15885043 0.15675926 0.35410503
-0.1568957 0.15690179 0.3541913
-0.15531087 0.1569815 0.35423717
-0.15313752 0.15710403 0.35427466
-0.15104736 0.15698934 0.35433716
-0.14897157 0.15688659 0.35442045
-0.14690879 0.15679526 0.35452461
-0.14487177 0.15712649 0.35461485
-0.14284796 0.15707353 0.35479543
-0.14087169 0.15707217 0.35508707
-0.1388889 0.15706368 0.35535786
-0.13690288 0.15705131 0.35561478
-0.1350176 0.15722282 0.355887
-0.13375384 0.15785849 0.35596198
-0.2412225 0.15904105 0.35581198
-0.23873784 0.15879695 0.35514957
-0.23677206 0.15911408 0.35488707
-0.23478882 0.15923892 0.35467044
-0.2329945 0.15881354 0.35443088
-0.2309657 0.15896398 0.35421216
-0.22948751 0.15920651 0.35408717
-0.15824795 0.15865883 0.35408717
-0.15701231 0.15901162 0.35411841
-0.15492503 0.15890484 0.35421216
-0.15280184 0.15875842 0.35421216
-0.1511187 0.15905255 0.35417047
-0.14902957 0.15893544 0.35422608
-0.14696832 0.15884545 0.35433713
-0.14492747 0.15917268 0.35442045
-0.14289671 0.15911227 0.35458711
-0.14091937 0.15911047 0.35487875
-0.13891102 0.1590734 0.35508707
-0.13694571 0.15908539 0.35539952
-0.13498172 0.15909943 0.355712
-0.13315766 0.15917173 0.355937
-0.24093094 0.1610994 0.35589948
-0.23915647 0.1607433 0.35546201
-0.23712909 0.16132471 0.35521206
-0.23488295 0.16091886 0.35477459
-0.23268156 0.16084382 0.35448712
-0.23081437 0.16121247 0.35433716
-0.22892724 0.16108334 0.35412884
-0.15696712 0.16056244 0.3540872
-0.15503757 0.1610139 0.35412881
-0.15291221 0.16086495 0.35412884
-0.15119851 0.1607286 0.35408717
-0.14908452 0.16058461 0.3540872
-0.14703 0.16089961 0.35414967
-0.14495201 0.16078866 0.35421216
-0.14294785 0.16115515 0.35437879
-0.14094168 0.16112131 0.35460103
-0.13895984 0.16111487 0.35487878
-0.13696392 0.16109198 0.35511482
-0.13498871 0.16109313 0.35539952
-0.13302051 0.16110307 0.35569808
-0.13108753 0.16121833 0.35583696
-0.12914361 0.16147758 0.35591203
-0.12694533 0.16171297 0.35596198
-0.12529275 0.16161922 0.35596198
-0.24059674 0.16240722 0.35589948
-0.23866661 0.16305944 0.35580575
-0.23687212 0.163427 0.35571203
-0.23517211 0.16273676 0.3551704
-0.23317239 0.16295302 0.35474336
-0.23109892 0.16306911 0.35446215
-0.22898445 0.16273661 0.35418093
-0.14480065 0.16223092 0.35411844
-0.14300521 0.16320655 0.35418093
-0.14099632 0.16317014 0.35439965
-0.13901466 0.16316481 0.35468084
-0.13701081 0.16313313 0.35489956
-0.13503325 0.16313241 0.35518083
-0.13302629 0.16309579 0.35537872
-0.13101409 0.16305172 0.35555577
-0.1289822 0.16298158 0.35567033
-0.12694968 0.16290875 0.35577446
-0.12479824 0.16299568 0.35583696
-0.12297641 0.16332862 0.355887
-0.12143114 0.16367303 0.35596195
-0.23652489 0.16468202 0.35596198
-0.23486042 0.16480431 0.35558701
-0.23286462 0.16543704 0.35508707
-0.23123462 0.16478333 0.35462877
-0.22920673 0.16485851 0.35431215
-0.2278343 0.16569225 0.35408717
-0.14263088 0.16442303 0.35408717
-0.14104779 0.16481948 0.3542538
-0.1390609 0.16480885 0.35452461
-0.1369637 0.16497159 0.35478354
-0.13497651 0.16498704 0.35493708
-0.13305491 0.16511714 0.35511485
-0.13102014 0.16504468 0.35523286
-0.128984 0.1649684 0.35533705
-0.12694351 0.16488455 0.35542038
-0.12502344 0.16492581 0.35552454
-0.12291874 0.1651808 0.3556495
-0.12090953 0.16513282 0.35579529
-0.11905431 0.16524662 0.35596195
-0.23494302 0.16709405 0.35568076
-0.23297757 0.16714202 0.35521206
-0.23074712 0.16672568 0.35477459
-0.22867289 0.16724637 0.35439965
-0.22715732 0.16745463 0.35421216
-0.14201617 0.16781098 0.35408717
-0.14105207 0.1668295 0.35419655
-0.13916476 0.16692065 0.35444129
-0.13724701 0.16697466 0.35460272
-0.13520317 0.16697875 0.35476211
-0.13308805 0.16714503 0.35485792
-0.13104722 0.16706479 0.35496208
-0.12898745 0.16695757 0.35500374
-0.12696894 0.16690162 0.35514957
-0.1249535 0.16684823 0.35529539
-0.12294809 0.16680679 0.35546201
-0.12083551 0.16694202 0.35562271
-0.11888168 0.16699114 0.35581198
-0.11725066 0.16741548 0.35594115
-0.23608072 0.16913283 0.35596198
-0.23531587 0.16898112 0.35579529
-0.23327333 0.16902167 0.35533705
-0.23099813 0.16888025 0.35493708
-0.22900309 0.16914861 0.35458711
-0.2268517 0.16877559 0.3542434
-0.22546479 0.16990396 0.35408717
-0.14086647 0.16905122 0.35414967
-0.13886799 0.16902988 0.35439965
-0.13681127 0.16893634 0.35449338
-0.135188 0.16888726 0.35461834
-0.13314633 0.16880839 0.3547329
-0.13109945 0.16911817 0.35475376
-0.12905353 0.169029 0.35483706
-0.1270261 0.16896202 0.35496208
-0.12502165 0.16892402 0.35514259
-0.12302431 0.16889471 0.35533705
-0.12112524 0.16896307 0.35549331
-0.11911478 0.16900121 0.35568699
-0.11704067 0.16921073 0.35583699
-0.11502919 0.16915751 0.35596198
-0.11382155 0.16952017 0.35596198
-0.23619024 0.17004806 0.35596198
-0.23469591 0.17112264 0.35568076
-0.23270239 0.17119406 0.35529539
-0.23142855 0.17096733 0.35508707
-0.22929591 0.17102799 0.3547121
-0.22707216 0.17090939 0.35436216
-0.22537178 0.17142184 0.35417047
-0.14083938 0.17063807 0.35417047
-0.13884151 0.17101005 0.35425907
-0.13691314 0.17105286 0.35439965
-0.13485211 0.17095201 0.35447603
-0.13280021 0.17086013 0.35456631
-0.13114586 0.17116551 0.35452461
-0.12912159 0.17110495 0.35467044
-0.12709637 0.17104164 0.35480586
-0.1250965 0.17101099 0.35500374
-0.12310245 0.17098762 0.35521206
-0.12109628 0.17094658 0.35537872
-0.11909598 0.17091279 0.35555577
-0.11709812 0.17088147 0.35573283
-0.11508864 0.17083228 0.35586825
-0.11307258 0.17094143 0.35594416
-0.11120933 0.17166673 0.35596195
-0.23481035 0.17284121 0.35579529
-0.2328473 0.17307305 0.35543078
-0.23074663 0.17315969 0.35511833
-0.2287475 0.17293537 0.35475376
-0.22705054 0.17317714 0.35452461
-0.22497049 0.17305477 0.35424343
-0.22385824 0.1724183 0.35408717
-0.14062218 0.17202355 0.35408717
-0.1390342 0.17295171 0.35414967
-0.13698089 0.17312914 0.35421216
-0.1349051 0.17300946 0.35425386
-0.1328259 0.17288208 0.35427469
-0.13096645 0.17291167 0.35441214
-0.12893161 0.17302701 0.35446215
-0.12716132 0.1731164 0.35462877
-0.12516373 0.17308997 0.35483709
-0.12316813 0.17306578 0.35504544
-0.12116538 0.17303063 0.35522592
-0.11915535 0.17298405 0.35537872
-0.11716179 0.17296034 0.35557312
-0.11515204 0.17291178 0.35571197
-0.11313625 0.17295159 0.35580575
-0.11114374 0.17322415 0.35593075
-0.10966048 0.17330267 0.35596195
-0.23477852 0.17441837 0.35596198
-0.23325379 0.17504871 0.355712
-0.23108831 0.1750861 0.35530579
-0.22885884 0.17465085 0.35486835
-0.22688973 0.17524132 0.3546496
-0.22478153 0.17488718 0.35436839
-0.2229224 0.17503011 0.35412884
-0.13659869 0.17434247 0.35408717
-0.13492526 0.17422968 0.3540872
-0.13288862 0.17455573 0.35414967
-0.13084528 0.17487052 0.35418442
-0.12883675 0.17522979 0.35430592
-0.12683943 0.17520571 0.35452461
-0.12484418 0.17518391 0.35474336
-0.12299553 0.17522442 0.35488707
-0.12106214 0.17501733 0.35506207
-0.11880787 0.17504083 0.35521206
-0.11682134 0.17502864 0.35543078
-0.11519691 0.17496526 0.35549325
-0.11318756 0.17491645 0.3556287
-0.11117413 0.17485961 0.35574323
-0.10918903 0.17484617 0.35594118
-0.10758182 0.17520124 0.35596198
-0.10599151 0.17597978 0.35596198
0.26327226 0.17536081 0.35569116
0.26486549 0.17519666 0.35554537
0.26647195 0.17522579 0.35587868
-0.23245418 0.17713089 0.35583699
-0.23084281 0.17688596 0.35533702
-0.22913964 0.17684737 0.35506207
-0.22720805 0.17715323 0.35480586
-0.22511581 0.17681013 0.35455588
-0.22319309 0.17711224 0.35428715
-0.22161858 0.17757221 0.35408717
-0.13050193 0.17653298 0.35408717
-0.12889883 0.17690602 0.3541809
-0.12689275 0.17687088 0.35437882
-0.12489261 0.17684323 0.35458711
-0.12288767 0.1768079 0.35477459
-0.12088159 0.17716779 0.35487875
-0.11877362 0.17702501 0.35507143
-0.11686906 0.17708801 0.35521209
-0.11485296 0.17703098 0.35533702
-0.11283929 0.17697628 0.35546198
-0.11083278 0.17693098 0.35560089
-0.10883907 0.1769052 0.35577449
-0.10694026 0.17697132 0.35589951
-0.10497456 0.17736548 0.35596195
0.26156798 0.17710561 0.35558701
0.26319531 0.17706129 0.35496208
0.26543173 0.17711177 0.35506207
0.26720434 0.17690274 0.35558701
-0.23239765 0.17869648 0.35596198
-0.23070158 0.17876942 0.35552454
-0.22868209 0.17932621 0.3552433
-0.22671314 0.17911203 0.35492042
-0.22491865 0.17885262 0.35461837
-0.22325151 0.17910647 0.35442045
-0.22153075 0.17910528 0.35417047
-0.12853019 0.17813805 0.35408717
-0.12685627 0.17884921 0.35421216
-0.12495785 0.17892592 0.35439965
-0.12295628 0.1788967 0.354601
-0.12095137 0.17925969 0.3547121
-0.11905356 0.17904411 0.35489064
-0.11691857 0.17915154 0.35499334
-0.11492486 0.1791302 0.35519123
-0.11289637 0.17905325 0.35527456
-0.11089715 0.179021 0.35544121
-0.10889338 0.17898037 0.35558701
-0.1068858 0.17893189 0.35571203
-0.10488962 0.17890128 0.35586825
-0.10342801 0.17901456 0.35596195
0.25744793 0.17987148 0.355712
0.258928 0.17927814 0.35561198
0.26071337 0.17884934 0.35521206
0.26305404 0.17892702 0.35481209
0.26469135 0.17849188 0.35458711
0.26712832 0.17813477 0.35521206
-0.23094971 0.18060553 0.35583699
-0.22914977 0.18136714 0.35561824
-0.22690281 0.180902 0.35514957
-0.22476341 0.18093321 0.35474336
-0.2227135 0.18102968 0.35446215
-0.22078936 0.1808335 0.35417047
-0.2192876 0.1818358 0.35408717
-0.12619935 0.18059346 0.35408717
-0.12501404 0.18099761 0.3541809
-0.12300988 0.18096562 0.35437879
-0.12100077 0.1809254 0.35455585
-0.11898721 0.18087719 0.3547121
-0.11698639 0.18084723 0.35489959
-0.11496753 0.18078816 0.35502458
-0.11296853 0.18115687 0.35512874
-0.11084786 0.18099029 0.35525891
-0.10894964 0.18106095 0.35539952
-0.1069511 0.18102908 0.35555923
-0.10495236 0.18099588 0.35571197
-0.10296373 0.18097936 0.35589254
-0.10110887 0.18149547 0.35596195
0.2553775 0.18122137 0.35587868
0.25688115 0.18104677 0.35536829
0.25890389 0.18098347 0.35458711
0.26118782 0.1804906 0.35454547
0.26309645 0.18048985 0.35453713
0.26510608 0.18133315 0.35458711
-0.23003182 0.18299361 0.35596198
-0.228991 0.1832473 0.35577449
-0.22728881 0.18288256 0.35539952
-0.22518533 0.18294257 0.35505581
-0.2230529 0.18297169 0.3546496
-0.22088666 0.18286791 0.35436216
-0.21905074 0.18322745 0.35421216
-0.21726775 0.18313856 0.35412884
-0.12464675 0.18223502 0.35408717
-0.12296917 0.18294403 0.35419655
-0.12107066 0.18302174 0.35437882
-0.11904974 0.18296355 0.35451767
-0.11704972 0.18293631 0.35471213
-0.1150294 0.18287593 0.35483712
-0.11303595 0.18325511 0.35496208
-0.11113326 0.18302819 0.35510492
-0.10901712 0.18316238 0.3552433
-0.10702226 0.18313859 0.35542035
-0.10502593 0.18311159 0.35558701
-0.10303768 0.183098 0.35577449
-0.10105079 0.1830866 0.35596198
-0.099827737 0.18302301 0.35596198
0.25391728 0.1827448 0.35589948
0.25517192 0.18273509 0.35549325
0.25680214 0.18311721 0.35479543
0.25824809 0.18288131 0.35433713
0.26487219 0.18202634 0.35408717
0.26611322 0.18229577 0.35433716
-0.22859216 0.18491 0.35583699
-0.22666192 0.18514062 0.35549325
-0.22505523 0.18505493 0.35521203
-0.22324169 0.18476953 0.35487875
-0.22113243 0.18520758 0.35463709
-0.2189272 0.18513301 0.35443088
-0.21720755 0.18470375 0.35425386
-0.21520016 0.18521105 0.35413715
-0.12234662 0.18514395 0.35408717
-0.1211461 0.18512879 0.35421216
-0.11913275 0.18508375 0.35437879
-0.11710463 0.18501398 0.35449338
-0.1151067 0.18499045 0.35469127
-0.11309382 0.18494204 0.35483709
-0.11108372 0.18489642 0.35498294
-0.10908201 0.18486395 0.35514957
-0.10707626 0.18482326 0.35529539
-0.10508802 0.18481193 0.35549325
-0.10310128 0.1848032 0.35569116
-0.10111883 0.18480211 0.35589948
-0.099504724 0.18474892 0.35596198
0.25332379 0.18500076 0.35560489
0.25512609 0.1848284 0.35496208
0.25661489 0.18506806 0.35433713
0.26663563 0.1852219 0.35446212
-0.2285407 0.18649256 0.35596198
-0.22721015 0.1868728 0.35579529
-0.22498687 0.18722455 0.35546201
-0.22279394 0.18678114 0.35505584
-0.22086173 0.18738587 0.35486835
-0.21882468 0.18706213 0.35468087
-0.21677785 0.18672517 0.35446215
-0.21488738 0.1873493 0.35430592
-0.21305823 0.18721038 0.35412884
-0.12120508 0.18641537 0.35414967
-0.1191836 0.18635876 0.35429549
-0.11717159 0.18631554 0.35446212
-0.11516205 0.18627508 0.35462877
-0.11314802 0.18622607 0.35477459
-0.11113667 0.18617976 0.35492042
-0.10913393 0.18614672 0.35508707
-0.10713331 0.18611635 0.35525373
-0.10514686 0.18611008 0.35546201
-0.10316185 0.18610643 0.35567033
-0.10118392 0.18611589 0.35589948
-0.09956862 0.18606208 0.35596198
0.25141132 0.1870214 0.35577449
0.25287408 0.18685257 0.35494125
0.25479221 0.18667166 0.35429549
0.26659235 0.18604773 0.35421216
-0.22645177 0.18900885 0.35596198
-0.22527514 0.18911779 0.35583699
-0.22323924 0.18882838 0.35539952
-0.2212064 0.18934937 0.35505584
-0.21914595 0.18900496 0.35483709
-0.21702926 0.18892825 0.35461211
-0.21514547 0.18923727 0.35436839
-0.21311225 0.18890041 0.35414967
0.25138471 0.18894312 0.35510269
0.25300589 0.18829948 0.35429549
-0.22473875 0.19106995 0.35586822
-0.2226001 0.19108632 0.35546201
-0.22101253 0.19121237 0.35514957
-0.21941239 0.19090493 0.35489959
-0.21739559 0.19100924 0.3546496
-0.21534964 0.19108149 0.35433716
-0.21376947 0.19077909 0.35408717
0.24988531 0.19182888 0.35546201
0.25062948 0.19093387 0.35498294
-0.22454801 0.1929436 0.35596198
-0.22301143 0.19311798 0.35574323
-0.22091849 0.19316629 0.35539952
-0.2186809 0.19266213 0.35489959
-0.21668473 0.19319889 0.35458711
-0.21502198 0.19282359 0.35421216
-0.21393688 0.19217592 0.35408717
0.24917993 0.19316985 0.35531205
0.25025544 0.19231427 0.35433716
-0.22326943 0.19502179 0.35577446
-0.221232 0.19511822 0.35552454
-0.21898322 0.19492701 0.35511208
-0.21691553 0.19507502 0.35458711
-0.21517429 0.19462675 0.35408717
0.24755758 0.19497624 0.35583699
0.24891953 0.19471641 0.35485792
-0.22403733 0.19701044 0.35583699
-0.2234502 0.19644102 0.35577449
-0.22141087 0.19653526 0.35552451
-0.21984218 0.19625257 0.35533702
0.24564153 0.19772466 0.35587868
0.24708898 0.19696848 0.35558698
0.24868482 0.19699335 0.35475376
0.2448841 0.1991841 0.355712
0.24713014 0.19920687 0.35523286
0.24887913 0.19927843 0.35452464
-0.25694916 -0.10030004 0.3575868
-0.25612035 -0.078329712 0.35708684
-0.25544143 -0.07692495 0.35717019
-0.25665104 -0.075903147 0.35733682
-0.25611183 -0.070124567 0.35771179
-0.2552422 -0.068772197 0.35727432
-0.25493675 -0.067053884 0.35696188
-0.25518969 -0.064892322 0.35694626
-0.25637764 -0.062603101 0.35721183
-0.25577542 -0.063136674 0.35725352
-0.25377798 -0.040218454 0.35608697
-0.25387973 -0.039142851 0.3576493
-0.25519973 -0.036912628 0.35711187
-0.25568697 -0.035022929 0.35689935
-0.25475514 -0.033146881 0.35716182
-0.25393459 -0.032212663 0.35796174
-0.25344557 -0.030826623 0.35703686
-0.25316152 -0.028972711 0.35713372
-0.25329009 -0.026999366 0.35699755
-0.25600624 -0.024004508 0.35696188
-0.254531 -0.02482005 0.35727432
-0.25319397 -0.024834117 0.35779512
-0.25476208 -0.023030652 0.35683689
-0.25310495 -0.022787739 0.35771179
-0.25182217 -0.02278664 0.35796174
-0.25309691 -0.021121353 0.35704517
-0.25180078 -0.021155033 0.35796174
-0.25415686 -0.01828783 0.35721183
-0.25343028 -0.01937251 0.35731602
-0.25472802 -0.01697674 0.35693687
-0.25361344 -0.01708715 0.35783678
-0.25661123 -0.015021161 0.3565869
-0.25500357 -0.015028353 0.35707295
-0.25353667 -0.015043967 0.35775343
-0.25486434 -0.012984567 0.35689938
-0.25353667 -0.013005627 0.35777429
-0.25649232 -0.010535331 0.35646191
-0.25511581 -0.010959166 0.35726741
-0.25362864 -0.010971361 0.35792008
-0.25644547 -0.0089207888 0.35708684
-0.2548914 -0.0089293905 0.35764927
-0.25364983 -0.0089331744 0.35796174
-0.25684184 -0.0076957047 0.35696188
-0.25489607 -0.0069830571 0.35714936
-0.25361538 -0.0068930783 0.35792008
-0.25328842 -0.0048477487 0.35746178
-0.25317577 -0.0030442632 0.35749748
-0.25400084 -0.0011785986 0.35708684
-0.25330633 -0.0010656258 0.35747963
-0.25468728 0.0012666248 0.35667023
-0.25319394 0.00077282661 0.3575868
-0.25653076 0.0029029176 0.35650358
-0.25497392 0.0028979562 0.35705912
-0.25307512 0.0028919925 0.35781595
-0.25633448 0.0049354583 0.35621196
-0.25500718 0.0049354658 0.35708687
-0.25310323 0.0049307356 0.35783678
-0.25462911 0.0068517947 0.35692614
-0.25336161 0.0067677172 0.35783678
-0.25433528 0.0090126134 0.35746181
-0.25371516 0.0090166014 0.35796174
-0.25421035 0.011045835 0.35725346
-0.25370881 0.011056545 0.35792008
-0.25416249 0.013081169 0.35714933
-0.25358734 0.013090662 0.35771179
-0.24268939 0.013381164 0.35796174
-0.24078836 0.013359885 0.35796174
-0.2393672 0.013344076 0.35796174
-0.25477967 0.015217721 0.35677436
-0.25342077 0.015335551 0.35777429
-0.25136888 0.015519481 0.35796174
-0.24943262 0.015494591 0.35796174
-0.24702525 0.015545266 0.35796174
-0.24457802 0.015024798 0.35789925
-0.24277258 0.015113339 0.3577475
-0.24065645 0.01497114 0.35773262
-0.23884718 0.014953375 0.35785758
-0.23719454 0.015476219 0.35796174
-0.25639519 0.017150946 0.35608697
-0.25508216 0.017166233 0.35698271
-0.25316256 0.017166801 0.35771179
-0.25135112 0.017148666 0.35789925
-0.24939308 0.017120309 0.35786802
-0.24715647 0.017169567 0.35783678
-0.24498063 0.017054783 0.35774302
-0.24284062 0.016942631 0.35768682
-0.24067259 0.016995601 0.35771179
-0.23877971 0.016970377 0.35771179
-0.23697676 0.016951289 0.35783678
-0.23564887 0.016938746 0.35796174
-0.25500047 0.019089133 0.3566494
-0.2530804 0.019303527 0.35724756
-0.25121087 0.019175706 0.35764933
-0.24937731 0.019154219 0.35779509
-0.24709433 0.019018648 0.35780552
-0.24474648 0.019199071 0.3577475
-0.2426066 0.019049631 0.35771179
-0.24073394 0.019024052 0.35775343
-0.23885427 0.018997591 0.35777429
-0.23705071 0.018976966 0.35789928
-0.23568113 0.018959938 0.35796174
-0.25459874 0.020795941 0.35621193
-0.25311884 0.021209264 0.35685769
-0.25111768 0.021204833 0.35746181
-0.24927001 0.021180268 0.3575868
-0.24702065 0.021154532 0.35781595
-0.24467993 0.021120723 0.35789925
-0.24277024 0.021090083 0.35789925
-0.24091014 0.021063408 0.35796174
-0.2390151 0.021033477 0.35796174
-0.23728192 0.020871444 0.35796174
-0.25278389 0.022842992 0.35702434
-0.25110677 0.02283268 0.35739931
-0.24925917 0.022806821 0.35752434
-0.24708147 0.022786254 0.35785761
-0.24522474 0.022352759 0.35796174
-0.24045844 0.022273002 0.35796174
-0.23903789 0.022249546 0.35796174
-0.2528581 0.024886891 0.35706601
-0.25115111 0.024873359 0.35739931
-0.24895093 0.024849612 0.35771179
-0.24696031 0.025030194 0.35796174
-0.23517144 0.025152646 0.35796174
-0.233459 0.025391407 0.35796174
-0.25300914 0.026940249 0.35721183
-0.25114661 0.027016137 0.35773677
-0.24892423 0.026817331 0.35788676
-0.24676155 0.026860492 0.35796174
-0.24500515 0.026961496 0.35796174
-0.24294981 0.027598877 0.35796174
-0.24105513 0.027967531 0.35796174
-0.23910731 0.027518729 0.35789928
-0.23718168 0.027073057 0.35785758
-0.23528647 0.027035385 0.35783675
-0.23299016 0.026996221 0.35790619
-0.23086101 0.027498038 0.35796174
-0.25459614 0.029538339 0.35683689
-0.25289834 0.02901122 0.35767013
-0.25063002 0.028977269 0.35789928
-0.24873833 0.028941063 0.35796174
-0.24681079 0.028900241 0.35796174
-0.24484839 0.028854782 0.35789928
-0.24297662 0.028972527 0.35781178
-0.24089502 0.029164333 0.35768056
-0.23893674 0.029117266 0.3575868
-0.23700747 0.029073406 0.35752434
-0.23514768 0.029037608 0.35755557
-0.2329226 0.02900468 0.35773262
-0.23071896 0.028974041 0.35793048
-0.22934458 0.028948937 0.35796174
-0.2549724 0.031174395 0.35748681
-0.25287348 0.030986633 0.35783678
-0.2506398 0.031017434 0.35783678
-0.24872597 0.03097634 0.35786802
-0.24679838 0.030933036 0.35786805
-0.24479301 0.030879458 0.35774302
-0.24279669 0.030826364 0.35761803
-0.2406996 0.031012857 0.35746178
-0.23882006 0.031124905 0.35733685
-0.23697436 0.031089276 0.35739931
-0.23513527 0.031054137 0.35746181
-0.23293045 0.031022076 0.35767016
-0.23074657 0.030992478 0.35789928
-0.22938219 0.030564502 0.35796174
-0.25497967 0.033067781 0.35786799
-0.25262609 0.033109065 0.35781595
-0.2505798 0.033048701 0.35767016
-0.24864458 0.033002343 0.35767016
-0.24673168 0.032958522 0.35769096
-0.2447266 0.032901641 0.35756597
-0.24271642 0.032843623 0.35742018
-0.24083991 0.032954305 0.35731182
-0.23878965 0.033142768 0.35721183
-0.23694393 0.033105072 0.35727429
-0.23518714 0.03307946 0.35746181
-0.23299508 0.033047676 0.35769096
-0.23083732 0.033020381 0.35796174
-0.25605467 0.034421496 0.35777429
-0.2548441 0.035286892 0.35768682
-0.25256893 0.035143249 0.35764933
-0.2505812 0.035087682 0.3575868
-0.24864568 0.035038795 0.3575868
-0.2466535 0.034981299 0.35749307
-0.24464875 0.034921397 0.35736805
-0.24269548 0.034868274 0.35730559
-0.24077143 0.03481875 0.35727429
-0.23878005 0.035012983 0.35726181
-0.23709626 0.035147518 0.35742018
-0.23510289 0.03522614 0.3575511
-0.23298371 0.034977023 0.35777426
-0.23111817 0.034847401 0.35796174
-0.25497323 0.036836561 0.35752431
-0.25246844 0.037018515 0.35756183
-0.25061521 0.03713147 0.35754514
-0.24863569 0.037073594 0.35748267
-0.24665052 0.037014224 0.35739931
-0.24461688 0.036946766 0.35723266
-0.24273424 0.036901589 0.35727429
-0.24087296 0.03685911 0.35733679
-0.23910937 0.036980934 0.3573868
-0.23724449 0.037191845 0.35755557
-0.23498106 0.037146449 0.35769096
-0.23277356 0.037109397 0.35789928
-0.23141269 0.037081115 0.35796174
-0.2551612 0.038875017 0.35730109
-0.25300759 0.038941097 0.35740823
-0.25057915 0.03916496 0.35739928
-0.24862137 0.039107602 0.35736805
-0.24662879 0.039044082 0.35727429
-0.24466632 0.038984615 0.35721183
-0.24281847 0.038942881 0.35730559
-0.2409772 0.038901679 0.35739928
-0.23912165 0.038857728 0.35746181
-0.23735555 0.038827952 0.3576493
-0.2349757 0.039081335 0.35777426
-0.23280625 0.039133623 0.35785758
-0.23099214 0.039094213 0.35794091
-0.22915593 0.039453663 0.35796174
-0.22745925 0.039544702 0.35796174
-0.25517696 0.040894516 0.35693061
-0.2533775 0.040861852 0.35714936
-0.25086856 0.04097157 0.35722968
-0.24862482 0.041144386 0.35727429
-0.24671103 0.041091092 0.35729516
-0.24476187 0.041031148 0.35725346
