# .PCD v0.7 - Point Cloud Data file format
VERSION 0.7
FIELDS x y z
SIZE 4 4 4
TYPE F F F
COUNT 1 1 1
WIDTH 1389
HEIGHT 1
VIEWPOINT 0 0 0 1 0 0 0
POINTS 1389
DATA ascii
0.19901983 0.10868483 0.36808568
0.20088127 0.10880521 0.36814818
0.20271437 0.10890858 0.36814818
0.2047354 0.10879415 0.36808568
0.20679688 0.10869936 0.36808568
0.22500673 0.10851067 0.36808568
0.22693585 0.10864015 0.36811692
0.22866301 0.10859811 0.36808571
0.2713533 0.10821011 0.36996049
0.20046686 0.11004198 0.36808568
0.27029124 0.11122251 0.36808568
0.2705493 0.11261859 0.36827317
0.27123758 0.11721543 0.36864811
0.27186769 0.11921574 0.36927304
0.27195129 0.12054878 0.36921054
-0.25919399 0.19534811 0.36833566
-0.25830853 0.19754286 0.36808568
-0.2572507 0.19740275 0.36808568
-0.2588883 0.19886926 0.36871061
-0.25716901 0.1989653 0.36871061
-0.25576666 0.19937044 0.36858562
-0.25354144 0.19987826 0.36821067
-0.2588436 0.20039678 0.36996049
-0.25660121 0.20090522 0.36958551
-0.25465432 0.2008514 0.36896059
-0.2526308 0.20072898 0.36821067
-0.25172159 0.20158046 0.36821067
-0.26087752 0.20361136 0.36996049
-0.2549412 0.20275098 0.3698355
-0.25287887 0.20303762 0.36892933
-0.26078975 0.20487478 0.36952302
-0.2587398 0.20498498 0.36973554
-0.25693244 0.20550047 0.36989799
-0.25534087 0.20528406 0.36989799
-0.25314057 0.2050135 0.36889809
-0.26025623 0.20613381 0.36921054
-0.25904414 0.20721731 0.36936054
-0.25715679 0.2071182 0.36971051
-0.25479898 0.20697314 0.36946052
-0.25259936 0.20669658 0.36846063
0.23076646 -0.21300595 0.37096035
-0.21405992 -0.21137506 0.37189776
-0.21296825 -0.21115452 0.3717103
-0.21114239 -0.21097772 0.37158531
-0.2087882 -0.21052971 0.37161031
-0.20670456 -0.21095271 0.37177277
-0.20486623 -0.21084204 0.37196025
0.23155293 -0.21116208 0.37146032
0.23254825 -0.21087815 0.37046042
-0.21284963 -0.20931 0.37189776
-0.2112547 -0.20901968 0.37167907
-0.20926532 -0.20876399 0.37161654
-0.20694867 -0.20903993 0.37172815
-0.2049503 -0.20911396 0.37193528
-0.19002256 -0.20925659 0.37196025
-0.18855743 -0.20863256 0.37196025
-0.18684542 -0.208618 0.37196025
-0.18530978 -0.20878042 0.37196025
0.23311588 -0.20918134 0.37119249
0.23497461 -0.20867899 0.37053183
0.23672158 -0.20805226 0.37021044
-0.21271782 -0.20788606 0.37196025
-0.21108739 -0.20713109 0.37177277
-0.20908302 -0.20686138 0.37167907
-0.20715593 -0.20666407 0.3717103
-0.20506293 -0.20701574 0.37191859
-0.20395748 -0.20691599 0.37196025
-0.1861556 -0.20791695 0.37196025
0.23353989 -0.20746838 0.37183526
0.23499393 -0.20700929 0.37131029
0.23675618 -0.20655863 0.37061664
-0.21271445 -0.20501566 0.37196025
-0.21085204 -0.2051791 0.37174153
-0.20883328 -0.20489557 0.37161654
-0.20692675 -0.20471832 0.37167907
-0.20504336 -0.20456098 0.37177277
-0.20375009 -0.2049901 0.37196025
0.23532861 -0.20575397 0.37183526
0.23687275 -0.2051353 0.37114787
0.23831944 -0.20487113 0.37021044
-0.21407545 -0.20278305 0.37196025
-0.21251792 -0.20296656 0.3717103
-0.21054891 -0.20316541 0.37158531
-0.20873652 -0.2030859 0.37150201
-0.20691797 -0.20265308 0.37153536
-0.20480299 -0.20260729 0.3717103
-0.20292017 -0.20279026 0.37191027
0.23747675 -0.2031974 0.37158531
0.23877494 -0.20295863 0.37073538
-0.2132996 -0.20073724 0.37183529
-0.21139081 -0.20108604 0.37161031
-0.20929508 -0.20107195 0.37146032
-0.20735703 -0.20086475 0.37146032
-0.20501272 -0.20067726 0.37158534
-0.20277865 -0.20059481 0.37189776
-0.20137334 -0.20047981 0.37196025
0.23785187 -0.20129997 0.37196025
0.23919491 -0.20107681 0.37112704
0.24005961 -0.20050955 0.3707104
-0.21493484 -0.19892049 0.37196025
-0.21305209 -0.19878629 0.37177277
-0.21108417 -0.19898862 0.37164783
-0.20912316 -0.19919266 0.37152284
-0.20715266 -0.19895476 0.37146032
-0.20525832 -0.19878662 0.37152281
-0.20299272 -0.19867213 0.37177277
-0.20084269 -0.19838576 0.37196025
0.23908348 -0.19907372 0.37166861
0.24076988 -0.19881864 0.37056753
-0.22599362 -0.19603185 0.37196025
-0.22014995 -0.1963331 0.37196025
-0.21854299 -0.19647337 0.37196025
-0.21681178 -0.19691616 0.37196025
-0.2149044 -0.19718315 0.37196025
-0.21282554 -0.19685867 0.37174153
-0.21084215 -0.19704647 0.37158531
-0.20888358 -0.19725238 0.37146032
-0.20695108 -0.19705085 0.37146032
-0.20505945 -0.19688514 0.37152281
-0.20322494 -0.19677176 0.37167907
-0.20111787 -0.19672674 0.37183526
-0.19998193 -0.19610988 0.37196025
-0.18966706 -0.19604425 0.37196025
-0.18673342 -0.19693387 0.37196025
-0.18479593 -0.19683151 0.37196025
0.23930748 -0.19712996 0.37189776
0.24084575 -0.19695459 0.37110615
0.24280135 -0.1967383 0.37046042
0.24431214 -0.19649012 0.37021044
-0.22676902 -0.19422345 0.37196025
-0.22490437 -0.19540827 0.37189776
-0.22291806 -0.195189 0.37189776
-0.22092053 -0.19495633 0.37186652
-0.21919163 -0.19455914 0.37175193
-0.21701865 -0.19499274 0.37183526
-0.21460563 -0.19519222 0.371804
-0.21275727 -0.19509089 0.37166867
-0.210867 -0.19494469 0.37151033
-0.2089422 -0.19509706 0.37146032
-0.2067523 -0.19515285 0.37146032
-0.20486332 -0.19498959 0.37152284
-0.20301425 -0.19486171 0.37164783
-0.20117009 -0.1947363 0.37177277
-0.19936433 -0.19464605 0.37196025
-0.19789137 -0.19403511 0.37196025
-0.19077168 -0.19459648 0.37196025
-0.18899912 -0.19486472 0.37196025
-0.18728198 -0.19535577 0.37196025
-0.18514435 -0.19525155 0.37196025
-0.18397617 -0.1945878 0.37196025
0.2412477 -0.19515835 0.37160611
0.24307352 -0.19524515 0.37096035
0.24488853 -0.19529545 0.37058541
0.24623096 -0.19444714 0.37046042
-0.22854556 -0.19252898 0.37196025
-0.22698843 -0.19274527 0.37177277
-0.225012 -0.19340123 0.37161654
-0.22300947 -0.19316827 0.37158531
-0.22101468 -0.19293813 0.37155408
-0.21902731 -0.19271086 0.37152281
-0.21715379 -0.19301024 0.37158531
-0.21528569 -0.19331124 0.37164783
-0.21328199 -0.19305845 0.37155408
-0.21128595 -0.19280832 0.37146032
-0.20907785 -0.19304971 0.37146032
-0.20683539 -0.19319549 0.37146032
-0.20463559 -0.1930674 0.37146032
-0.20278931 -0.19294165 0.37158531
-0.20093116 -0.19280207 0.37167907
-0.19911149 -0.19269738 0.37183526
-0.19727978 -0.19257879 0.37196025
-0.19495972 -0.1928222 0.37196025
-0.1924752 -0.19289725 0.37196025
-0.1907672 -0.19289242 0.37196025
-0.18889311 -0.19271898 0.37196025
-0.18706715 -0.19301532 0.37196025
-0.18524534 -0.1933126 0.37196025
-0.18385041 -0.19318667 0.37196025
0.24188004 -0.19316554 0.37196025
0.24317752 -0.19315191 0.37158528
0.24490966 -0.19313569 0.37108532
0.24690683 -0.19280846 0.37052295
-0.22859316 -0.19088684 0.3717936
-0.22663681 -0.19072331 0.37155408
-0.22476771 -0.19113706 0.37146032
-0.22266458 -0.19115004 0.37136656
-0.22063658 -0.19089112 0.3712728
-0.21867196 -0.19068322 0.3712728
-0.21680176 -0.19098353 0.37133533
-0.21493693 -0.19128548 0.37139782
-0.21293734 -0.19103613 0.37130409
-0.21098086 -0.19082162 0.37127283
-0.20904897 -0.19062591 0.3712728
-0.20728958 -0.1914385 0.37139782
-0.20509759 -0.19131857 0.37141031
-0.20281029 -0.19092982 0.37146032
-0.20069483 -0.19087446 0.37158531
-0.19884476 -0.1907395 0.37167907
-0.19699973 -0.19060701 0.37177277
-0.19526473 -0.19142863 0.37189776
-0.19311231 -0.19132519 0.37191027
-0.19085361 -0.19094232 0.37193528
-0.18872206 -0.1908516 0.37196025
-0.18685582 -0.19068292 0.37196025
-0.18514588 -0.19117634 0.37196025
0.24361418 -0.19140941 0.37183526
0.24499698 -0.19102721 0.37167904
0.24708964 -0.19095077 0.37093952
-0.2307754 -0.18900162 0.37196025
-0.229008 -0.18916909 0.3717103
-0.22722609 -0.18874602 0.37154365
-0.22533429 -0.18863487 0.37139779
-0.22340369 -0.18932451 0.37130409
-0.22133778 -0.18903582 0.37114784
-0.21928076 -0.18874998 0.37099162
-0.21708679 -0.18882164 0.37103537
-0.21507779 -0.18931785 0.37114787
-0.21288033 -0.18896067 0.37106034
-0.21067868 -0.18884242 0.37108535
-0.20878564 -0.18868133 0.37114787
-0.20693415 -0.1889814 0.3711895
-0.20509301 -0.18928784 0.37124157
-0.20323311 -0.18914898 0.37133533
-0.20110559 -0.18908195 0.37143531
-0.1988761 -0.18874136 0.37156034
-0.19677189 -0.18869008 0.37167907
-0.19494568 -0.18899667 0.3717103
-0.19315596 -0.18933614 0.371804
-0.19131121 -0.18919583 0.37186649
-0.18902051 -0.18903172 0.37196025
-0.18685831 -0.18899183 0.37196025
0.24505168 -0.1893598 0.37183526
0.24709614 -0.18921445 0.37131453
0.24838619 -0.18886229 0.37014794
-0.23110181 -0.18649416 0.37187693
-0.22929125 -0.18732129 0.3717103
-0.22718389 -0.18701354 0.37152281
-0.22508594 -0.18670891 0.37133533
-0.22319081 -0.18709752 0.37118536
-0.22103852 -0.18706672 0.37099159
-0.21898517 -0.18678476 0.37083539
-0.21699519 -0.18655279 0.3707729
-0.2152383 -0.18737306 0.37092912
-0.21331489 -0.18719217 0.37096035
-0.21138 -0.18699817 0.37096035
-0.20918672 -0.18688451 0.37098536
-0.20687744 -0.18648423 0.37101036
-0.204872 -0.18738356 0.3711791
-0.20298071 -0.18721536 0.37121034
-0.20111214 -0.18706548 0.3712728
-0.19929925 -0.18696508 0.37142906
-0.19698562 -0.18679188 0.37152281
-0.19471227 -0.18665352 0.37167907
-0.19291432 -0.18698376 0.37175193
-0.19114149 -0.18733607 0.37186652
-0.18931995 -0.18721592 0.37196025
-0.18796217 -0.18755515 0.37196025
0.2452206 -0.18737923 0.37196025
0.24686988 -0.18730141 0.37133536
0.24822754 -0.18700452 0.37027293
-0.23262674 -0.18497506 0.37196025
-0.23106566 -0.18476789 0.37186649
-0.22914591 -0.18515141 0.3717103
-0.22697353 -0.18512094 0.37152281
-0.22484063 -0.18478903 0.3712728
-0.2227497 -0.1849151 0.37099162
-0.22076088 -0.18512046 0.37086666
-0.21871091 -0.18484214 0.3707104
-0.21676092 -0.18464452 0.3707104
-0.21501184 -0.18513975 0.37076038
-0.21301326 -0.18522339 0.3707729
-0.21108194 -0.18503222 0.3707729
-0.20921005 -0.18489031 0.37086663
-0.20732619 -0.18473533 0.37092912
-0.20502873 -0.18501404 0.37101391
-0.20274808 -0.18530408 0.37111658
-0.20089935 -0.18517196 0.37121034
-0.19902211 -0.1850111 0.37124157
-0.19723348 -0.18493041 0.37142909
-0.19513252 -0.18487862 0.3715353
-0.19294153 -0.18456522 0.37168533
-0.1909488 -0.1850348 0.37189779
-0.18922356 -0.18509433 0.37196025
0.24597502 -0.18554688 0.37189776
0.24707647 -0.18495335 0.3713145
0.24815586 -0.18521382 0.37052292
-0.23436722 -0.18282031 0.37196025
-0.2328949 -0.18311822 0.37192902
-0.23075706 -0.18279912 0.3717103
-0.22870009 -0.18296961 0.37152284
-0.22667083 -0.18315689 0.37136659
-0.22470398 -0.18298729 0.37108532
-0.22297636 -0.18282014 0.37092912
-0.2209947 -0.18324606 0.3707729
-0.21898289 -0.18300167 0.37067917
-0.21701561 -0.18279082 0.37064791
-0.21477889 -0.18273206 0.37066877
-0.21278627 -0.18332359 0.3707104
-0.21085787 -0.18313518 0.3707104
-0.2089711 -0.18298009 0.3707729
-0.2070903 -0.18282747 0.37083539
-0.20524965 -0.18270805 0.37096035
-0.20306182 -0.1830914 0.37099162
-0.20068906 -0.1832844 0.37114787
-0.19883141 -0.18314135 0.37121034
-0.19702861 -0.18304682 0.37136656
-0.19519725 -0.18292361 0.37146032
-0.1929514 -0.18280756 0.37164783
-0.19069549 -0.18267928 0.37180403
-0.18884262 -0.18286291 0.37196025
0.24702768 -0.18274418 0.37167904
0.24868394 -0.18284805 0.3706747
-0.23611337 -0.1806697 0.37196025
-0.23474732 -0.18115798 0.37191027
-0.23275693 -0.18131673 0.37175193
-0.23125888 -0.18076168 0.37154365
-0.22909966 -0.18091555 0.37141031
-0.22717881 -0.18112791 0.37121034
-0.22523127 -0.18097685 0.37096035
-0.22313017 -0.18067025 0.37074164
-0.2212301 -0.18137702 0.37067917
-0.21921962 -0.18113521 0.37058541
-0.2172721 -0.18094192 0.37058541
-0.21533147 -0.18075123 0.37058541
-0.21301316 -0.18102483 0.3706747
-0.21093293 -0.18102376 0.3707104
-0.20878778 -0.18112195 0.3707729
-0.20692678 -0.18098684 0.37086663
-0.20507114 -0.18085414 0.37096035
-0.20316933 -0.1806781 0.37096035
-0.20106606 -0.1811333 0.37113222
-0.19891742 -0.18104105 0.37121034
-0.1968428 -0.1811842 0.37133533
-0.19503027 -0.18107824 0.37146032
-0.19318958 -0.18094404 0.37152281
-0.19097359 -0.18085296 0.37175193
-0.18873642 -0.18073961 0.37192902
-0.18703741 -0.18045788 0.37196025
0.24737561 -0.18094073 0.37177277
0.24896632 -0.18082578 0.37106454
0.25050157 -0.18067199 0.37027293
-0.26438978 -0.17858714 0.37183526
-0.26136246 -0.17947397 0.37021044
-0.23690888 -0.17888808 0.37196025
-0.23531976 -0.17867017 0.37183526
-0.23331919 -0.17932725 0.37167907
-0.23116454 -0.17899992 0.37142906
-0.22902021 -0.17867561 0.3711791
-0.22706284 -0.17935003 0.37105408
-0.22491768 -0.17901446 0.3707729
-0.22283918 -0.17872703 0.37058541
-0.22100222 -0.17915818 0.3705104
-0.21898952 -0.17924088 0.37052292
-0.21708152 -0.1790805 0.37058541
-0.21514341 -0.17889254 0.37058541
-0.21328393 -0.17876735 0.3707104
-0.21082787 -0.178905 0.37077287
-0.20873921 -0.17905478 0.37088537
-0.2068007 -0.17918131 0.37096035
-0.20491235 -0.1790204 0.37099162
-0.20308118 -0.17890711 0.37111658
-0.20125481 -0.17879607 0.37124157
-0.19896789 -0.17907336 0.37129959
-0.19696991 -0.1789301 0.37137699
-0.19486567 -0.17923796 0.37146032
-0.19304349 -0.17912082 0.37155408
-0.19125813 -0.17903601 0.3717103
-0.18898571 -0.1788891 0.37181446
-0.18674104 -0.1787653 0.37196025
-0.18531561 -0.17819345 0.37196025
0.24887644 -0.17902486 0.37127283
0.25078684 -0.17882913 0.37027293
-0.23515117 -0.17681938 0.37189776
-0.23316999 -0.17716788 0.37166029
-0.23086366 -0.17705041 0.3712728
-0.22889172 -0.17689259 0.37100205
-0.22698061 -0.17711346 0.37081039
-0.22481239 -0.17725049 0.37062708
-0.22304073 -0.17683865 0.37042919
-0.22070706 -0.17671509 0.3703146
-0.21876219 -0.17735223 0.37046042
-0.2168387 -0.1771794 0.37049165
-0.21499421 -0.17706884 0.37064791
-0.2131189 -0.17693073 0.37074164
-0.21130255 -0.17683968 0.37092912
-0.20896554 -0.17694978 0.37098122
-0.20684297 -0.17682098 0.37108538
-0.20484233 -0.17726612 0.3711791
-0.20299545 -0.17713964 0.3712728
-0.20118742 -0.17704529 0.37142906
-0.19931678 -0.17689356 0.37146032
-0.19699281 -0.17699413 0.37146032
-0.19488046 -0.17685659 0.3715139
-0.19291584 -0.17731717 0.37161654
-0.19110022 -0.17720406 0.3717103
-0.1892413 -0.17704833 0.3717103
-0.18698825 -0.17691635 0.37183523
-0.18488282 -0.17664784 0.37196025
0.2489568 -0.17709784 0.37150195
0.25059968 -0.17696293 0.37033543
-0.23448414 -0.17492241 0.37196025
-0.23271088 -0.17488869 0.37163529
-0.23078024 -0.17530419 0.3711687
-0.22921759 -0.17470388 0.37083539
-0.22735514 -0.1750558 0.37064791
-0.22531958 -0.17523715 0.37046042
-0.22322518 -0.17494123 0.37024167
-0.22125223 -0.17473656 0.37021044
-0.21907721 -0.17502002 0.37029377
-0.21707667 -0.17504232 0.37043962
-0.21481147 -0.17522007 0.37064791
-0.21295649 -0.1750989 0.3707729
-0.21114239 -0.17500953 0.37096035
-0.20929751 -0.17489289 0.37108535
-0.20699298 -0.17474549 0.37123117
-0.20472656 -0.1750508 0.37135613
-0.202985 -0.17511171 0.37143531
-0.20105466 -0.17523862 0.37149155
-0.19918598 -0.17508905 0.37152284
-0.19733933 -0.1749565 0.37158531
-0.19499749 -0.17475714 0.37158534
-0.19274609 -0.17505653 0.37166867
-0.19101438 -0.17511111 0.3717103
-0.18908781 -0.17522348 0.3717103
-0.18723643 -0.17507213 0.3717103
-0.18503334 -0.17498399 0.37191859
0.24962553 -0.17546505 0.37152281
0.25085253 -0.17484291 0.37079969
-0.23428261 -0.1730525 0.37196025
-0.23258904 -0.17275807 0.37164783
-0.23092207 -0.17333737 0.37121034
-0.22912568 -0.17295712 0.3707104
-0.22692819 -0.17291547 0.37046042
-0.22503226 -0.17330875 0.37030417
-0.2229789 -0.17304607 0.37014794
-0.22102773 -0.172859 0.37014794
-0.21912056 -0.1727035 0.37021044
-0.21700351 -0.17302956 0.37037709
-0.21503256 -0.17293179 0.37058541
-0.21277875 -0.17325714 0.3707729
-0.21096694 -0.17316937 0.37096035
-0.20915951 -0.17308381 0.37114787
-0.20732166 -0.17297132 0.3712728
-0.20503736 -0.17283869 0.37143946
-0.20266497 -0.17295428 0.37156028
-0.20094568 -0.17303252 0.37166867
-0.1991944 -0.17308119 0.3717103
-0.19724587 -0.17318742 0.3717103
-0.19510052 -0.17309752 0.3717103
-0.19284603 -0.17272946 0.3717103
-0.19064514 -0.17291042 0.3717103
-0.18889916 -0.17294931 0.3717103
-0.18708722 -0.17325421 0.3717103
-0.18507381 -0.17326906 0.37191024
-0.18395078 -0.17266116 0.37196025
0.25150052 -0.1730395 0.3711687
-0.23458382 -0.17123699 0.37196025
-0.23324537 -0.17085217 0.3717103
-0.23113351 -0.17092492 0.37133533
-0.22906719 -0.17120335 0.37092912
-0.22686452 -0.17083965 0.37055415
-0.22500715 -0.17120871 0.37021044
-0.22280072 -0.17163193 0.37008545
-0.22065921 -0.17112504 0.37008545
-0.21890149 -0.17083386 0.37014794
-0.21703988 -0.17071201 0.37027293
-0.21501561 -0.17091629 0.37056041
-0.21290053 -0.17087273 0.37075728
-0.21086402 -0.17106791 0.37096035
-0.20898885 -0.17125013 0.37114787
-0.20717072 -0.17115386 0.37130409
-0.20509472 -0.17113797 0.37148532
-0.20287471 -0.17081682 0.37161031
-0.20076682 -0.1707691 0.3717103
-0.19881545 -0.170876 0.3717103
-0.19715858 -0.17109902 0.3717103
-0.19521761 -0.17120887 0.3717103
-0.19335254 -0.17105569 0.3717103
-0.19102918 -0.17086726 0.3717103
-0.18871367 -0.17068189 0.3717103
-0.18692474 -0.17100763 0.37175193
-0.18515559 -0.17093028 0.37189779
-0.18384337 -0.17130361 0.37196025
0.25262928 -0.17103828 0.37089789
-0.23671195 -0.16863547 0.37183529
-0.2352688 -0.16938908 0.3717728
-0.23315477 -0.16910897 0.37158531
-0.23105037 -0.16883153 0.37139779
-0.22898996 -0.16900949 0.3711895
-0.22682938 -0.16910762 0.37080413
-0.22507149 -0.16875456 0.37033543
-0.22397172 -0.16814597 0.37021044
-0.2204473 -0.16898079 0.37008545
-0.21874061 -0.1690124 0.37017918
-0.21689941 -0.16890685 0.37033543
-0.21511786 -0.16884613 0.37058541
-0.2132864 -0.16874495 0.37074164
-0.21090896 -0.16882415 0.37097821
-0.20881438 -0.1689934 0.37121034
-0.20700476 -0.16932669 0.37130409
-0.2051934 -0.1692342 0.37146032
-0.203318 -0.16908696 0.37149158
-0.20103425 -0.16894984 0.37162697
-0.1987295 -0.16879204 0.3717103
-0.19675933 -0.16888 0.37166029
-0.19510874 -0.16910551 0.37166032
-0.19320153 -0.16924159 0.3717103
-0.19134399 -0.16909273 0.3717103
-0.18902995 -0.16890962 0.3717103
-0.18675494 -0.16875783 0.37177277
-0.18500894 -0.16870107 0.37196025
-0.18373701 -0.16994837 0.37196025
0.25354329 -0.16943026 0.37129366
0.25422227 -0.16872261 0.37087703
-0.26470801 -0.1662783 0.37146032
-0.23855424 -0.16656601 0.37196025
-0.23689854 -0.16674374 0.3716478
-0.23497896 -0.16714664 0.37151033
-0.23288433 -0.16720028 0.37146032
-0.23086104 -0.16698295 0.37139779
-0.22884572 -0.16676818 0.37133533
-0.22677961 -0.16704616 0.37091035
-0.22496408 -0.16697282 0.37046042
-0.22327764 -0.1669904 0.37021044
-0.2212082 -0.16708289 0.37013903
-0.21886396 -0.1671304 0.37021044
-0.2167616 -0.16710582 0.37039793
-0.21498188 -0.16704646 0.37064791
-0.21315233 -0.16694695 0.37080416
-0.21106362 -0.16692707 0.37098536
-0.20887163 -0.16663691 0.37118536
-0.20677181 -0.16702597 0.37125197
-0.20504741 -0.1671036 0.3713603
-0.20314175 -0.16725411 0.37146032
-0.20127435 -0.16711123 0.37149158
-0.19914579 -0.16704367 0.37153536
-0.19687137 -0.16666874 0.37151033
-0.19468962 -0.16687305 0.37156034
-0.19298343 -0.16695249 0.37164783
-0.19119725 -0.16728537 0.3717103
-0.18934713 -0.16714069 0.3717103
-0.18708403 -0.16700019 0.3717936
-0.18486905 -0.16689989 0.37196025
0.25394785 -0.16632517 0.37196025
0.25502318 -0.16703883 0.37110099
0.27786905 -0.16600004 0.3717103
-0.26365456 -0.16458693 0.37096038
-0.23862045 -0.16497944 0.3717936
-0.23671557 -0.16494223 0.37137699
-0.23482251 -0.16485801 0.37131032
-0.23263656 -0.16531171 0.37136659
-0.23059678 -0.16508368 0.3712728
-0.22881532 -0.16507737 0.37129366
-0.22734527 -0.16455732 0.37108532
-0.2255106 -0.16504024 0.37073538
-0.22330117 -0.16499108 0.37042919
-0.22126257 -0.16474517 0.37027293
-0.21917903 -0.16514321 0.37028185
-0.21707968 -0.16504775 0.37046042
-0.21484847 -0.16525075 0.3707104
-0.21300282 -0.16513906 0.37083539
-0.2111623 -0.1650295 0.37096035
-0.20909186 -0.16502194 0.37116033
-0.20682475 -0.16467026 0.37121034
-0.20462695 -0.16487676 0.37128535
-0.2029738 -0.16510956 0.37131032
-0.20106892 -0.16525766 0.37139782
-0.19919291 -0.16510515 0.37139782
-0.19732267 -0.16495472 0.37139782
-0.19501488 -0.16478811 0.37143946
-0.19275253 -0.1646568 0.37155408
-0.19100623 -0.16502337 0.37168947
-0.18927562 -0.16507728 0.3717103
-0.18698578 -0.1652386 0.37187693
-0.18473126 -0.16510305 0.37196025
0.25366068 -0.16483742 0.37177277
0.25525206 -0.1648822 0.37104368
0.2563031 -0.16457258 0.37033543
0.27793488 -0.16515911 0.37196025
-0.26292118 -0.16266401 0.37098122
-0.2405618 -0.16290852 0.37196025
-0.23909971 -0.16333875 0.37177277
-0.23725627 -0.16296256 0.37124157
-0.23504212 -0.16262341 0.37089786
-0.23316768 -0.16337022 0.37092912
-0.23114827 -0.16315807 0.37086663
-0.22921413 -0.16300337 0.37092912
-0.22728682 -0.16285087 0.37099162
-0.22513166 -0.16284838 0.37078539
-0.22321908 -0.16323267 0.37058541
-0.22121942 -0.16301765 0.37049165
-0.21926463 -0.16283248 0.37046042
-0.21691702 -0.16309159 0.37049612
-0.21481299 -0.1628499 0.37067467
-0.2128198 -0.16330789 0.37080416
-0.21098162 -0.16320017 0.37092912
-0.20913082 -0.16308078 0.37102285
-0.20732032 -0.162991 0.3711791
-0.20516971 -0.16291544 0.37121034
-0.20278709 -0.16278088 0.37121034
-0.2008862 -0.16310516 0.37121034
-0.19894208 -0.16321787 0.37121034
-0.19707483 -0.16306975 0.37121034
-0.19524604 -0.16295116 0.3712728
-0.19300233 -0.16283527 0.37141863
-0.19079159 -0.16274504 0.37161654
-0.18892324 -0.16290873 0.3717103
-0.18707374 -0.16313307 0.37185311
-0.18502004 -0.16289672 0.37196022
0.25293446 -0.16291761 0.37177277
0.25499389 -0.16284074 0.37100205
0.25690868 -0.16262099 0.37029377
0.27706793 -0.16376643 0.37096035
-0.26130018 -0.16116995 0.37114787
-0.25853932 -0.16021571 0.37183529
-0.24245858 -0.16098459 0.37196025
-0.2412117 -0.16068338 0.37187693
-0.23928365 -0.16102505 0.3716478
-0.23684859 -0.16097236 0.37089786
-0.23470746 -0.16072901 0.37037709
-0.23284262 -0.16147946 0.37041876
-0.23092218 -0.16102937 0.3703354
-0.22880296 -0.16100955 0.37055418
-0.22697563 -0.16092755 0.3707729
-0.22498246 -0.16072573 0.3707104
-0.22307765 -0.16100867 0.3707104
-0.22110401 -0.16123809 0.37058541
-0.21911412 -0.16102837 0.37049168
-0.21716857 -0.1608482 0.37046042
-0.21528441 -0.16071092 0.37052292
-0.21292055 -0.16092588 0.37072602
-0.21085349 -0.16109607 0.3708604
-0.20893741 -0.16124451 0.37096035
-0.20712921 -0.16115636 0.37111658
-0.20529103 -0.16104302 0.37121034
-0.20311837 -0.16094768 0.37118536
-0.20082645 -0.16090474 0.37108535
-0.19894513 -0.16108413 0.37101036
-0.19687906 -0.16123176 0.37111658
-0.19506916 -0.16112849 0.37121034
-0.1932475 -0.16101365 0.3712728
-0.19105513 -0.16093829 0.37150201
-0.18884131 -0.16084303 0.37167907
-0.18705055 -0.16074814 0.37177277
-0.18504362 -0.16093276 0.37193525
-0.18318845 -0.1606909 0.37196025
0.25324467 -0.16110633 0.37177277
0.25489962 -0.16105068 0.3711687
0.25704688 -0.16103113 0.37052292
0.25834644 -0.16102648 0.37014794
-0.26001179 -0.15977834 0.37021044
-0.25878966 -0.15939814 0.3707729
-0.25722083 -0.15907313 0.37158531
-0.25573543 -0.15809722 0.37183526
-0.24474812 -0.15891661 0.37196025
-0.24317586 -0.15916798 0.37180403
-0.24099706 -0.15887204 0.37155408
-0.23895478 -0.15899532 0.3711687
-0.23717231 -0.15885578 0.37041876
-0.23330554 -0.15988573 0.37008545
-0.23107684 -0.15936735 0.37021044
-0.22898179 -0.15913491 0.37033543
-0.22689469 -0.1589056 0.37046042
-0.22481032 -0.15890579 0.3707104
-0.22286481 -0.15873608 0.3707104
-0.22095565 -0.15901317 0.3706896
-0.21900298 -0.15925528 0.37058541
-0.21702266 -0.15905085 0.37049168
-0.21514052 -0.1589157 0.37055418
-0.21328227 -0.1587961 0.37064791
-0.210986 -0.15894441 0.37075207
-0.20889485 -0.15884717 0.37088892
-0.20690563 -0.15929981 0.37099159
-0.20507012 -0.15918836 0.37108535
-0.2031883 -0.15903872 0.37108535
-0.20127851 -0.15886441 0.37102285
-0.19894481 -0.15910389 0.37096038
-0.1968344 -0.1588352 0.37101391
-0.1948944 -0.15931073 0.37114784
-0.19310755 -0.15922454 0.3712728
-0.19091754 -0.1591507 0.37150201
-0.1886901 -0.15904376 0.3716478
-0.18691707 -0.15896386 0.37177277
-0.18514794 -0.1588857 0.37189776
-0.18335184 -0.15878263 0.37196025
0.25321937 -0.1597926 0.37196025
0.25492895 -0.15890664 0.37158528
0.25708976 -0.15889549 0.37096035
0.25880781 -0.1588801 0.37043956
0.26011527 -0.15844771 0.37014794
-0.25642619 -0.15771824 0.37058538
-0.25506058 -0.15681742 0.37100205
-0.25355521 -0.15609704 0.37196025
-0.24450345 -0.15703882 0.37187693
-0.24288487 -0.15726072 0.37164783
-0.24090564 -0.15714587 0.37141863
-0.23934349 -0.15663882 0.37083536
-0.23758024 -0.15760821 0.37021044
-0.23073758 -0.15789139 0.37021044
-0.22904563 -0.157425 0.37016878
-0.22728106 -0.1571463 0.37024167
-0.22501393 -0.15705308 0.37052295
-0.2226975 -0.15692309 0.3707104
-0.22076115 -0.15675817 0.3707104
-0.21885996 -0.15703841 0.3706896
-0.2170023 -0.15703204 0.37061042
-0.21501711 -0.15713778 0.37061664
-0.21316075 -0.15702012 0.3707104
-0.2112563 -0.15686479 0.3707104
-0.20909579 -0.15678915 0.37073538
-0.20684111 -0.15689008 0.37087107
-0.2048516 -0.15733914 0.37096035
-0.20300663 -0.1572184 0.37102285
-0.20109911 -0.15704651 0.37096035
-0.19923156 -0.15690319 0.37096035
-0.19692743 -0.15674447 0.37100205
-0.19472022 -0.15707844 0.37114787
-0.19293569 -0.15699412 0.3712728
-0.19118752 -0.156938 0.37146032
-0.18912889 -0.15711033 0.37163886
-0.18678562 -0.15718359 0.37177277
-0.18503383 -0.15711999 0.37192902
-0.1836797 -0.15703714 0.37196025
0.25558296 -0.15693292 0.37187696
0.25713661 -0.15676148 0.37139785
0.25884679 -0.15674135 0.3708666
0.26051638 -0.15669681 0.37027293
-0.26243103 -0.15447135 0.37008545
-0.25930253 -0.1541647 0.37008545
-0.25420231 -0.15569444 0.37064791
-0.25263882 -0.15450656 0.37158531
-0.24432448 -0.15477663 0.37196025
-0.24278021 -0.15516441 0.37166029
-0.24106799 -0.15520878 0.37146032
-0.23891182 -0.15496156 0.37056038
-0.22691756 -0.15543966 0.37016878
-0.22525676 -0.15523116 0.37039793
-0.22312923 -0.15519933 0.37056041
-0.22086544 -0.15487556 0.3706854
-0.21867126 -0.15479174 0.3707104
-0.21667831 -0.1548958 0.3707104
-0.21498644 -0.15511468 0.3707104
-0.21300554 -0.15522155 0.3707104
-0.2111032 -0.15506856 0.3707104
-0.20920713 -0.15491766 0.3707104
-0.20705573 -0.15484658 0.37073538
-0.2047704 -0.15492143 0.37079969
-0.20285836 -0.1551106 0.37088537
-0.20092204 -0.15523343 0.37089789
-0.19909032 -0.15511835 0.37096035
-0.19724697 -0.15499213 0.37099162
-0.19502293 -0.15489478 0.3711687
-0.19283175 -0.15482168 0.37139782
-0.191053 -0.15474093 0.37152284
-0.1890261 -0.15510145 0.37168947
-0.18699872 -0.15490973 0.37185088
-0.18499401 -0.15509851 0.37196025
0.257341 -0.15521093 0.3717103
0.25886089 -0.15501946 0.3711791
0.26046383 -0.15493584 0.37049165
-0.26276433 -0.15336829 0.3707729
-0.26131886 -0.15272747 0.37064791
-0.25238541 -0.15325899 0.37112701
-0.25197083 -0.15220954 0.3717103
-0.24414082 -0.15294373 0.37196025
-0.24265166 -0.15315989 0.37166867
-0.24138427 -0.15299457 0.37152281
-0.23884189 -0.15289828 0.37061664
-0.22683173 -0.15302633 0.37012711
-0.2250804 -0.15310521 0.37026042
-0.22316957 -0.15327434 0.37042916
-0.22131029 -0.1531651 0.37055418
-0.21919446 -0.15313709 0.3707104
-0.21687457 -0.15276995 0.3707104
-0.21461025 -0.15294431 0.3707104
-0.21281499 -0.15297933 0.3707104
-0.21095243 -0.15327647 0.3707104
-0.20905842 -0.15312786 0.3707104
-0.20717053 -0.15298127 0.3707104
-0.20528869 -0.15283665 0.3707104
-0.2029912 -0.15297274 0.37075207
-0.2008927 -0.15286051 0.37081751
-0.19891761 -0.15331165 0.37089789
-0.1971263 -0.1532262 0.37102288
-0.19495356 -0.15316917 0.37129366
-0.19274771 -0.15308465 0.37149158
-0.19098629 -0.15301819 0.3716478
-0.18919685 -0.15292764 0.37174153
-0.18699622 -0.15284166 0.37191859
0.25769383 -0.15380564 0.37196025
0.25905341 -0.153162 0.37131032
0.26045844 -0.15326193 0.37050208
0.27472347 -0.15286124 0.37102285
-0.2622543 -0.1509797 0.37196025
-0.26096618 -0.1511723 0.37154365
-0.2591258 -0.15073572 0.3707729
-0.25683501 -0.15028609 0.37008545
-0.25285807 -0.15072781 0.37068954
-0.25155732 -0.15069912 0.37183526
-0.24990773 -0.15028919 0.37196025
-0.24400485 -0.15157178 0.37196025
-0.2431373 -0.15081881 0.37175193
-0.24103138 -0.15094413 0.37143531
-0.2387259 -0.15111864 0.37071037
-0.23695263 -0.15080975 0.37027293
-0.22611451 -0.15071565 0.37008545
-0.22464612 -0.15089738 0.37018543
-0.22290017 -0.15097824 0.3703146
-0.22118349 -0.15107726 0.3704854
-0.21926302 -0.15123591 0.37061667
-0.21711919 -0.15118644 0.3707104
-0.21481013 -0.15082532 0.3707104
-0.21264583 -0.1507557 0.37074167
-0.21076737 -0.15104221 0.3707104
-0.20898464 -0.15108186 0.3707104
-0.20697373 -0.15115954 0.37061667
-0.20509426 -0.15101719 0.37061667
-0.20327221 -0.15091488 0.3707104
-0.2009607 -0.15075903 0.37075207
-0.19875805 -0.15110013 0.37091872
-0.19702417 -0.15105897 0.37114784
-0.19510174 -0.15112936 0.37137106
-0.19296274 -0.1508155 0.37156969
-0.19088951 -0.15127268 0.3717103
-0.18910138 -0.15118363 0.371804
-0.1870811 -0.15119143 0.37196025
0.2590608 -0.15098879 0.3713631
0.2604714 -0.15122813 0.37033543
0.27497044 -0.15125218 0.3716478
-0.2620177 -0.14954394 0.37183526
-0.26105201 -0.14874749 0.37154365
-0.25891179 -0.14901154 0.37111661
-0.25685081 -0.14902855 0.37083539
-0.25486687 -0.14904532 0.3707104
-0.25286031 -0.14895138 0.3712416
-0.25113234 -0.14895415 0.3717103
-0.24917753 -0.14882135 0.37183529
-0.24714656 -0.14864081 0.37183529
-0.24516818 -0.14891815 0.37183529
-0.24307457 -0.14912151 0.3716478
-0.24086538 -0.14882153 0.37133533
-0.23886001 -0.14914981 0.37083539
-0.23721766 -0.14895289 0.37046042
-0.23538101 -0.14869468 0.37016878
-0.22453716 -0.14882509 0.37014794
-0.22265962 -0.14870608 0.37024167
-0.22074452 -0.14886995 0.37038544
-0.21900313 -0.14895041 0.37050208
-0.21722832 -0.149317 0.37067914
-0.21507144 -0.14925671 0.37073538
-0.21281584 -0.14893153 0.37081042
-0.21058556 -0.14881368 0.3707104
-0.2086235 -0.14893046 0.3707104
-0.20682545 -0.14895715 0.37066874
-0.20495395 -0.14924011 0.37061664
-0.20313379 -0.14913964 0.3707104
-0.20131838 -0.14904086 0.37080416
-0.19908822 -0.14894412 0.37098122
-0.1969084 -0.14888328 0.37124157
-0.19515762 -0.14882824 0.37142906
-0.19297697 -0.14876395 0.37166867
-0.19078457 -0.14910583 0.37181446
-0.18901403 -0.14903122 0.37193942
-0.18743861 -0.1491521 0.37196025
0.25927404 -0.14869988 0.37127286
0.26070979 -0.14883426 0.37046042
0.26203397 -0.14810555 0.37008545
0.27438825 -0.14918822 0.37114784
-0.26253214 -0.14687087 0.37096035
-0.2607702 -0.14692132 0.37114787
-0.25863284 -0.14712687 0.37099162
-0.25697556 -0.14713967 0.37080413
-0.25493973 -0.14718083 0.37080413
-0.25303823 -0.14708246 0.37102285
-0.25085825 -0.14683516 0.37113532
-0.24870417 -0.14682318 0.37139785
-0.24676111 -0.14669496 0.37152284
-0.24476542 -0.14696154 0.37149155
-0.24269581 -0.14717969 0.37133533
-0.24103042 -0.14695159 0.37108535
-0.23933193 -0.1467002 0.3707729
-0.23722783 -0.1473107 0.37046042
-0.23504984 -0.14701936 0.37014794
-0.22486554 -0.14749527 0.37008545
-0.22315463 -0.14703764 0.37018543
-0.22087178 -0.14670546 0.37026042
-0.21877146 -0.14668855 0.37042916
-0.21695019 -0.14702314 0.37052295
-0.21523206 -0.14711601 0.37066039
-0.21328506 -0.14725006 0.3707104
-0.21111202 -0.14717396 0.3707104
-0.20902692 -0.14692959 0.3707104
-0.20693557 -0.14667808 0.3706854
-0.20483363 -0.14706171 0.3707104
-0.20298664 -0.14694257 0.37075207
-0.20130117 -0.14704485 0.37088537
-0.19900061 -0.14720915 0.37106451
-0.19682798 -0.14715372 0.37133533
-0.19506207 -0.14708744 0.37149158
-0.19329989 -0.14702278 0.3716478
-0.19107731 -0.14692479 0.3717936
-0.18885531 -0.14682509 0.37192902
-0.18718581 -0.14658034 0.37196025
0.25932243 -0.14699978 0.37161654
0.2608546 -0.14688183 0.37083536
0.26236692 -0.14669141 0.37029377
0.27376378 -0.1471087 0.37058541
0.27542052 -0.14621733 0.37158531
-0.26313347 -0.14548919 0.37027293
-0.26124549 -0.14497522 0.37061667
-0.25925821 -0.14483544 0.37074164
-0.25699928 -0.14497077 0.37039793
-0.25496718 -0.14522992 0.37036666
-0.25306854 -0.14513302 0.37058541
-0.25113389 -0.14501387 0.37074164
-0.24920601 -0.14489704 0.37089786
-0.2473058 -0.14479466 0.37108535
-0.24528779 -0.14462125 0.37108535
-0.24334282 -0.14534262 0.37105408
-0.24119782 -0.14508684 0.37083539
-0.23898248 -0.14478475 0.37049165
-0.2370071 -0.14516707 0.37026042
-0.23486538 -0.14520787 0.37011671
-0.22307505 -0.14528184 0.37008545
-0.22135305 -0.14503172 0.37017918
-0.21920145 -0.14498153 0.37026042
-0.21696559 -0.14467689 0.37038544
-0.2147809 -0.1449081 0.3705104
-0.21304633 -0.14498793 0.37060621
-0.2112115 -0.14530644 0.37064791
-0.20928825 -0.14514244 0.37058541
-0.20698394 -0.14500351 0.37066874
-0.2046645 -0.14485097 0.3707104
-0.20288253 -0.14477898 0.37086663
-0.20099747 -0.14494243 0.37096035
-0.19914268 -0.14517032 0.37112108
-0.19703206 -0.1448822 0.37138221
-0.1949209 -0.14489771 0.37152281
-0.19317523 -0.14526188 0.3716478
-0.19111419 -0.14524284 0.37173527
-0.18895553 -0.14496133 0.37183526
-0.18692482 -0.14496112 0.37196025
-0.18552937 -0.14443496 0.37196025
0.25980556 -0.14529851 0.37183529
0.26097134 -0.14522019 0.3712728
0.26301903 -0.14514899 0.37048125
0.26478055 -0.14472874 0.37008545
0.27333248 -0.14557384 0.37021044
0.27489638 -0.14463307 0.37108535
-0.26029909 -0.14339928 0.37021044
-0.25878829 -0.14285316 0.37033543
-0.25665092 -0.14293383 0.3703354
-0.25475284 -0.143086 0.37021044
-0.25276065 -0.14324242 0.37039793
-0.25087172 -0.14314967 0.37061667
-0.2488839 -0.14299877 0.37067914
-0.24679968 -0.14279002 0.37058541
-0.24478668 -0.14261959 0.37058541
-0.24290669 -0.14337718 0.37064791
-0.24078651 -0.14313737 0.37046042
-0.23863596 -0.14287591 0.37021044
-0.23647831 -0.14339904 0.37008545
-0.22100072 -0.14335124 0.37008545
-0.21924956 -0.14308101 0.37011668
-0.21714416 -0.14305918 0.37026042
-0.21491814 -0.14275961 0.37038541
-0.21278706 -0.14271609 0.37046042
-0.21096671 -0.14304444 0.37052295
-0.209117 -0.14293183 0.37058541
-0.20728861 -0.14325005 0.37061664
-0.20502226 -0.14313583 0.37075207
-0.20278564 -0.14304012 0.37092912
-0.20099235 -0.14295912 0.37105411
-0.19922028 -0.14289188 0.37121034
-0.19701783 -0.14281516 0.37141863
-0.19478264 -0.14271276 0.37155408
-0.19298987 -0.14304188 0.37158534
-0.19120871 -0.14296159 0.37168947
-0.18908899 -0.14308672 0.37172815
-0.18677637 -0.14318489 0.37189776
-0.1849886 -0.14309372 0.37196025
-0.18331583 -0.14284395 0.37196025
-0.18133684 -0.1424318 0.37196025
0.25975269 -0.14397314 0.37196025
0.261015 -0.14308496 0.37166861
0.26305211 -0.14300878 0.37086317
0.2652615 -0.14302652 0.37029377
0.26700249 -0.14252792 0.37012711
0.27446678 -0.14310263 0.3707104
-0.25727335 -0.14100026 0.37012711
-0.25515297 -0.14096208 0.37021044
-0.25300714 -0.14099684 0.37033543
-0.25099939 -0.14091897 0.37062708
-0.24860659 -0.14113036 0.37052292
-0.24670039 -0.14108513 0.37041876
-0.24524839 -0.14062516 0.37029377
-0.24314646 -0.14105295 0.3703146
-0.24124821 -0.14114563 0.37016878
-0.23992153 -0.14160317 0.37008545
-0.21864446 -0.14170234 0.37008545
-0.21705537 -0.14130484 0.37012711
-0.21508506 -0.14113756 0.37023544
-0.21285447 -0.14083342 0.37033543
-0.21076082 -0.14081293 0.37046042
-0.20891359 -0.14070277 0.37052292
-0.20713975 -0.14105839 0.37064791
-0.20513146 -0.14107655 0.37074611
-0.203088 -0.14087144 0.37092465
-0.20091578 -0.1412366 0.37114784
-0.19912815 -0.1411587 0.37127283
-0.19710721 -0.14117546 0.37146032
-0.19493468 -0.14089207 0.37156034
-0.19283973 -0.14085139 0.37158531
-0.19100708 -0.14073339 0.37158531
-0.18916926 -0.14092067 0.3717103
-0.18702874 -0.14098391 0.37177971
-0.18484707 -0.14091085 0.37196025
-0.18306229 -0.14123502 0.37196025
-0.18125427 -0.14112474 0.37196025
-0.17959209 -0.14088006 0.37196025
0.26146558 -0.1409335 0.37189776
0.26303506 -0.1408411 0.3711687
0.26523319 -0.1408525 0.37058541
0.26717514 -0.14095829 0.37036666
0.26859385 -0.14058448 0.37021044
0.27385157 -0.14104697 0.37014794
0.27408236 -0.14116566 0.37046042
-0.25470293 -0.13926753 0.37008545
-0.25300166 -0.13883765 0.37012711
-0.25096837 -0.13884406 0.37031046
-0.24913913 -0.13917576 0.37033543
-0.24723986 -0.13913664 0.37024167
-0.24516702 -0.13893557 0.37014794
-0.24366409 -0.13923754 0.37008545
-0.24174891 -0.13997149 0.37008545
-0.21499079 -0.13938311 0.37008545
-0.21329731 -0.13914663 0.37017918
-0.21101522 -0.13902985 0.3703146
-0.20874651 -0.13891955 0.37046042
-0.20694175 -0.1388364 0.37058541
-0.20514165 -0.13875493 0.3707104
-0.20294742 -0.13896719 0.37091872
-0.20091578 -0.13890816 0.37108535
-0.19896291 -0.13895951 0.37125197
-0.19730365 -0.13907841 0.37141031
-0.19496356 -0.13921152 0.37148118
-0.19272184 -0.139103 0.37158531
-0.19089083 -0.1389869 0.37158531
-0.18909663 -0.13889575 0.37164783
-0.18705246 -0.13888577 0.37173527
-0.18493739 -0.1386344 0.37188524
-0.18292497 -0.13905859 0.37196025
-0.18111886 -0.13895051 0.37196025
-0.17918527 -0.13912436 0.37196025
-0.17796919 -0.13876472 0.37196025
0.26299909 -0.13909537 0.37137699
0.26518101 -0.13909818 0.3707729
0.26709926 -0.13919035 0.37052292
0.26881728 -0.13910879 0.3702521
0.27090615 -0.13849041 0.37008545
0.27314419 -0.13895933 0.37046042
0.2744801 -0.13832676 0.37146032
-0.24906956 -0.1379191 0.37014794
-0.24751402 -0.137771 0.37008545
-0.21296291 -0.13748717 0.37008545
-0.2112945 -0.13726591 0.37021044
-0.20905079 -0.13717271 0.37039793
-0.20677872 -0.13705876 0.37052292
-0.20499794 -0.13699038 0.37067917
-0.20316999 -0.13688898 0.37074164
-0.20096855 -0.13681649 0.37096035
-0.1987392 -0.13672322 0.37111658
-0.19689621 -0.13691334 0.37126032
-0.19523202 -0.13702698 0.37139782
-0.19310038 -0.13702691 0.37147593
-0.19077644 -0.13724375 0.37158531
-0.1889521 -0.13713108 0.37158531
-0.18719573 -0.13706608 0.3717103
-0.18500049 -0.13698314 0.37185609
-0.18275949 -0.13686401 0.37189776
-0.18097076 -0.13676959 0.37192899
-0.1791122 -0.13693132 0.37196025
-0.17786549 -0.13703214 0.37196025
0.26281068 -0.13715033 0.37160316
0.26506466 -0.13731116 0.37086663
0.26688281 -0.13691942 0.37054375
0.26871428 -0.13696527 0.37016878
0.27073151 -0.13697547 0.37021044
0.27339315 -0.13691743 0.37162694
-0.21099396 -0.13520567 0.37011045
-0.20926555 -0.13495325 0.37023127
-0.20717557 -0.13511853 0.37040687
-0.20478734 -0.13518393 0.37052292
-0.20301312 -0.13511844 0.37067914
-0.20119219 -0.13502041 0.37074164
-0.1989875 -0.13494377 0.37093952
-0.19677737 -0.1348618 0.37111658
-0.19500519 -0.13479194 0.37124157
-0.19323707 -0.13472359 0.37136656
-0.19103567 -0.13505712 0.37147421
-0.18881379 -0.13495921 0.37158534
-0.18705928 -0.13489571 0.3717103
-0.18504392 -0.13531938 0.37178525
-0.18288866 -0.13503711 0.37183526
-0.18082094 -0.13500381 0.37183526
-0.17908365 -0.1349465 0.37196025
-0.17773795 -0.13487038 0.37196025
0.26192516 -0.13467428 0.37196025
0.26317626 -0.135078 0.37146032
0.26490679 -0.13507318 0.37096035
0.26668572 -0.13466161 0.37058541
0.26856005 -0.13472867 0.37027293
0.27080631 -0.13498008 0.37046042
-0.21046345 -0.13324608 0.37008545
-0.20906135 -0.13273816 0.37014794
-0.20700423 -0.13309024 0.3703146
-0.20491594 -0.13287722 0.37041354
-0.20286134 -0.13304937 0.3704854
-0.2010393 -0.13325545 0.37067914
-0.19922526 -0.13316071 0.37074167
-0.19702841 -0.13308753 0.37093952
-0.1948424 -0.13302022 0.37114784
-0.19307624 -0.13295318 0.3712728
-0.19106534 -0.13297132 0.37143531
-0.1889201 -0.13270369 0.3715353
-0.18690968 -0.13271886 0.37167907
-0.18514048 -0.13305728 0.3717103
-0.18304044 -0.13306977 0.37178838
-0.18098265 -0.1328537 0.3718144
-0.17898251 -0.13321948 0.37196025
-0.1776379 -0.13314462 0.37196025
0.26175278 -0.1328615 0.37196025
0.26300257 -0.13283399 0.37152278
0.26473084 -0.13282861 0.37102288
0.2668491 -0.13280126 0.37063539
0.2691704 -0.13308904 0.37033543
0.27151698 -0.1333856 0.37096035
-0.20878069 -0.13112195 0.37012711
-0.20710494 -0.13089497 0.37021044
-0.20529415 -0.13080837 0.37030417
-0.20290998 -0.13087502 0.37040687
-0.20079745 -0.13101979 0.37050208
-0.19901983 -0.13094933 0.37062708
-0.19713412 -0.13117434 0.3707937
-0.19492801 -0.1311671 0.37101036
-0.19293371 -0.13119787 0.37121034
-0.19120538 -0.13115564 0.37139779
-0.18897313 -0.13105161 0.37148115
-0.18677324 -0.13096803 0.37161654
-0.18501066 -0.13089761 0.3717103
-0.18320568 -0.13079563 0.3717103
-0.1808733 -0.13087282 0.37178168
-0.17885852 -0.13106515 0.37196025
-0.17753947 -0.13142186 0.37196025
0.26158327 -0.13105237 0.37196025
0.2627874 -0.13100278 0.37146032
0.26483542 -0.13094112 0.37098539
0.2671099 -0.13120617 0.37063539
0.26929861 -0.13121158 0.37033543
0.27113953 -0.1310391 0.37075207
-0.20834437 -0.12963629 0.37008545
-0.20695034 -0.12913421 0.37014794
-0.2051243 -0.12903827 0.37021044
-0.20328611 -0.12893306 0.3702417
-0.20105974 -0.12884448 0.37039793
-0.19880612 -0.12873642 0.37049165
-0.19697002 -0.12892948 0.37063542
-0.19501695 -0.12916091 0.37085098
-0.19292167 -0.12888096 0.37108538
-0.19101869 -0.12895904 0.37129366
-0.18927474 -0.12890489 0.37143946
-0.18707572 -0.12923564 0.37152281
-0.18489324 -0.12916258 0.37167907
-0.18310526 -0.12907316 0.3717103
-0.18107845 -0.12907155 0.37178525
-0.17898884 -0.1288351 0.37193528
0.26141661 -0.12924686 0.37196025
0.2630057 -0.12917419 0.3712728
0.26529571 -0.12923229 0.37083536
0.26730305 -0.12906231 0.37061042
0.26912513 -0.12897162 0.37039793
0.27097982 -0.12880161 0.37083539
-0.2065509 -0.12714621 0.37008545
-0.20495641 -0.12727222 0.37011668
-0.20315462 -0.12719026 0.37021044
-0.2010626 -0.12716448 0.37026042
-0.19892237 -0.12691028 0.37041041
-0.19685976 -0.12689911 0.37049165
-0.19512796 -0.12685587 0.37067914
-0.1929708 -0.12680559 0.37091872
-0.19082925 -0.12676439 0.3711791
-0.18907702 -0.12670453 0.37130409
-0.18703663 -0.12717551 0.37146032
-0.1848903 -0.12685548 0.37154961
-0.18297191 -0.12691726 0.37168947
-0.18123946 -0.12727779 0.37177277
-0.17950663 -0.1272247 0.37189776
0.26159778 -0.1269716 0.3717728
0.26294023 -0.12720795 0.3711895
0.26515311 -0.12714191 0.37076038
0.26689023 -0.12688084 0.37061042
0.26888788 -0.1267041 0.37036666
0.27071553 -0.12694956 0.3707104
0.27255785 -0.12610394 0.37196025
-0.2061606 -0.12475166 0.37008545
-0.20480861 -0.1251063 0.37010631
-0.20300303 -0.12502272 0.37018964
-0.20116831 -0.12491959 0.37021044
-0.1991014 -0.12509191 0.37037113
-0.19673595 -0.12516496 0.37046042
-0.1949728 -0.12510166 0.37058541
-0.19298467 -0.12513542 0.37078539
-0.19089475 -0.12490797 0.37098539
-0.1889284 -0.12495367 0.37121034
-0.18716593 -0.12488587 0.37130409
-0.18497777 -0.12480912 0.37143949
-0.18278468 -0.12472732 0.37155405
-0.18108977 -0.12511326 0.3717103
-0.17919505 -0.12495334 0.3719067
0.26182628 -0.12472285 0.3716478
0.26303881 -0.12489767 0.37098539
0.26469392 -0.12494233 0.3706854
0.26671803 -0.1247794 0.37049165
0.26865184 -0.12487125 0.37027293
0.27094641 -0.12476332 0.37083539
0.2728686 -0.12474627 0.37183529
-0.20637192 -0.12291297 0.37012711
-0.20472705 -0.12298305 0.37021044
-0.20287713 -0.12287369 0.37021044
-0.20106669 -0.12278655 0.37027293
-0.19901524 -0.12313402 0.37039793
-0.19694144 -0.12292707 0.37046045
-0.19479942 -0.12292553 0.37050208
-0.19306417 -0.12287888 0.37066874
-0.19093579 -0.12325796 0.37089789
-0.18876553 -0.12319628 0.37108535
-0.1870209 -0.12314005 0.37121034
-0.18502691 -0.12316473 0.37136036
-0.18293338 -0.12292969 0.37151033
-0.18097289 -0.12297425 0.3717103
-0.17927365 -0.12294443 0.37189776
-0.17796363 -0.12289701 0.37196025
0.26175654 -0.12297089 0.37177277
0.26286697 -0.12288195 0.37114784
0.26489833 -0.12281356 0.37066039
0.26714486 -0.12306186 0.37028545
0.26930061 -0.1229718 0.37021044
0.27113059 -0.12298915 0.37083539
0.2732299 -0.12298045 0.37183529
-0.20603509 -0.12177201 0.37021044
-0.20505147 -0.12099294 0.37018958
-0.20276949 -0.12115218 0.37021044
-0.20099448 -0.12108707 0.37033543
-0.19922371 -0.12102334 0.37046042
-0.19710799 -0.12098245 0.37043542
-0.194906 -0.12068935 0.37043542
-0.19286299 -0.12068874 0.37052292
-0.19116895 -0.12107945 0.3707104
-0.18899745 -0.12101681 0.37089089
-0.18682759 -0.12095384 0.37106454
-0.18509924 -0.12090716 0.37121034
-0.18297942 -0.12128561 0.37141863
-0.18085076 -0.12124584 0.37164783
-0.17912303 -0.1211964 0.37177277
-0.1775697 -0.12103387 0.37196025
0.26173338 -0.1212415 0.37196025
0.26286551 -0.1211637 0.37136656
0.2650657 -0.12117878 0.37081456
0.26730213 -0.12120999 0.3703042
0.26923332 -0.12107965 0.37026042
0.27097318 -0.12061896 0.37091872
0.27315629 -0.12121643 0.37196025
-0.204927 -0.11912446 0.37017471
-0.2028279 -0.11889297 0.37021044
-0.20086439 -0.11894092 0.37033543
-0.19912998 -0.119015 0.37033543
-0.19720578 -0.11915561 0.3703042
-0.19493009 -0.11903432 0.3703146
-0.19273242 -0.11895852 0.37046042
-0.19098312 -0.11890212 0.37058541
-0.18923777 -0.11884686 0.3707104
-0.18707703 -0.11878973 0.37089789
-0.18493679 -0.11874439 0.37111658
-0.18306912 -0.11925007 0.37129959
-0.18099239 -0.1189753 0.37149161
-0.17899238 -0.11905363 0.37173113
-0.17730935 -0.1190333 0.37193942
0.26161876 -0.11989992 0.37196025
0.26291719 -0.11903999 0.3717103
0.26467916 -0.11905246 0.37127283
0.26675683 -0.11924542 0.37094253
0.26856127 -0.11880537 0.37092912
0.27086368 -0.11905354 0.37121034
0.27299386 -0.11941427 0.37196025
-0.2047461 -0.11694984 0.37008545
-0.20296951 -0.11688635 0.37021044
-0.20068619 -0.11676925 0.37024167
-0.19877216 -0.11691888 0.37023544
-0.1970316 -0.11698795 0.37021044
-0.19520803 -0.11689027 0.37021044
-0.19300319 -0.11722261 0.37029377
-0.19083981 -0.1171664 0.37049165
-0.18909611 -0.11711235 0.37061664
-0.18693225 -0.11705319 0.37079373
-0.1847994 -0.11701213 0.37102285
-0.1830987 -0.11698202 0.37121034
-0.18097425 -0.11694445 0.37143949
-0.178874 -0.11692161 0.3717103
-0.17718254 -0.11689547 0.37189776
-0.17587873 -0.11685203 0.37196025
0.26306155 -0.11703555 0.37191859
0.26473409 -0.11692886 0.37161654
0.26670179 -0.11703095 0.37146032
0.26876771 -0.1171743 0.37142909
0.27090845 -0.11755505 0.3717103
-0.20464325 -0.11523627 0.37008545
-0.2032941 -0.11517979 0.37014794
-0.20102876 -0.11507419 0.37021044
-0.19873704 -0.1149512 0.37021044
-0.19689333 -0.11484472 0.37017918
-0.19502217 -0.11472014 0.37008545
-0.19310716 -0.11520191 0.37021044
-0.19097634 -0.11490071 0.3703354
-0.18891232 -0.11494356 0.37048125
-0.18720603 -0.1149115 0.37066874
-0.18517691 -0.1149734 0.3708666
-0.18298 -0.11526372 0.37114787
-0.18105653 -0.11533076 0.37141031
-0.17900398 -0.11512121 0.37161031
-0.17706907 -0.11517961 0.37183526
-0.17508237 -0.11503898 0.37196025
0.26495573 -0.11538696 0.37187696
0.26679781 -0.11492193 0.37185612
0.268886 -0.11507183 0.37185609
-0.20456724 -0.11395276 0.37008545
-0.20314664 -0.11303034 0.37010625
-0.20116551 -0.11307018 0.37019256
-0.19908196 -0.1129855 0.37021044
-0.1967482 -0.11311236 0.37008545
-0.1949515 -0.1134437 0.37008545
-0.19312967 -0.11293578 0.37011671
-0.1909381 -0.11286332 0.3702521
-0.18877345 -0.11280538 0.37042916
-0.1870216 -0.11274577 0.37052292
-0.18482484 -0.11291321 0.37085322
-0.18287253 -0.11314414 0.37114784
-0.18120801 -0.11313585 0.37139782
-0.17907022 -0.11308902 0.37158531
-0.17693688 -0.11304376 0.37177277
-0.17523162 -0.11300763 0.37191859
-0.17314452 -0.11282059 0.37196022
-0.20255348 -0.11086728 0.37008545
-0.20117667 -0.11079571 0.37008545
-0.19909801 -0.11112976 0.37014794
-0.19744229 -0.1108586 0.37008545
-0.19256973 -0.11120643 0.37008545
-0.19102502 -0.11125594 0.37023544
-0.18892907 -0.11102595 0.37038544
-0.18696642 -0.11107093 0.37058541
-0.18489103 -0.11106434 0.37091872
-0.1828136 -0.11105618 0.37124157
-0.18111953 -0.11102969 0.37142906
-0.17896824 -0.11097488 0.37158528
-0.17683664 -0.1109309 0.37177277
-0.17509358 -0.1108709 0.37183526
-0.1729321 -0.11080525 0.37193942
-0.17083678 -0.11097293 0.37196025
-0.20245841 -0.10916463 0.37008545
-0.2010995 -0.10910356 0.37011671
-0.19931991 -0.10903861 0.37021044
-0.1969841 -0.10889403 0.37010625
-0.19467866 -0.10835235 0.37008545
-0.19282493 -0.10894452 0.37011045
-0.1911688 -0.10906038 0.37021044
-0.1890298 -0.10901821 0.37043265
-0.18691288 -0.10898785 0.37068954
-0.18494788 -0.10908792 0.37100723
-0.18292521 -0.1088487 0.37129959
-0.18103361 -0.10892724 0.37146032
-0.17888892 -0.1088769 0.371627
-0.17672853 -0.10922502 0.3717103
-0.17501621 -0.10918456 0.37183526
-0.17301105 -0.10919605 0.37188524
-0.17091152 -0.10895266 0.37193525
-0.16932552 -0.10855748 0.37196025
-0.20234214 -0.10703989 0.37008545
-0.20100136 -0.10698938 0.37014794
-0.19920641 -0.10691702 0.37021044
-0.19723849 -0.10696159 0.37021044
