# .PCD v0.7 - Point Cloud Data file format
VERSION 0.7
FIELDS x y z
SIZE 4 4 4
TYPE F F F
COUNT 1 1 1
WIDTH 1456
HEIGHT 1
VIEWPOINT 0 0 0 1 0 0 0
POINTS 1456
DATA ascii
0.19513558 0.10096797 0.37196025
0.19696009 0.10105871 0.37196025
0.19878969 0.10115066 0.37196025
0.20106858 0.10098215 0.37196025
0.20293754 0.10157616 0.37196025
0.25171477 0.10071909 0.37196025
0.25318319 0.10079848 0.37189776
0.25511867 0.10089436 0.37177277
0.2569747 0.10095784 0.37152281
0.25883645 0.10102281 0.3712728
0.260726 0.1010978 0.37105411
0.2626884 0.10119997 0.37092912
0.26474512 0.10104688 0.37081042
0.26662329 0.10097491 0.3707104
0.26879844 0.10101254 0.37101036
0.14143436 0.10280111 0.37008545
0.14303432 0.10276428 0.37011668
0.14510179 0.10306971 0.37013903
0.14687148 0.10283716 0.37008545
0.15594932 0.10294252 0.37008545
0.15728307 0.10302113 0.37017918
0.15905192 0.10311816 0.37027293
0.1609527 0.10300128 0.3704854
0.16267627 0.10295364 0.37066874
0.16481455 0.1029825 0.37083536
0.16714995 0.1028001 0.37096035
0.16897352 0.10291947 0.37111658
0.17077373 0.10302266 0.37121034
0.17306407 0.10317276 0.37139782
0.17531301 0.10288441 0.37152281
0.17717552 0.10301705 0.3717103
0.17888077 0.10293901 0.37176028
0.18080699 0.10280948 0.37189776
0.1830734 0.10293168 0.37196025
0.18531607 0.10303827 0.37196025
0.18711558 0.10312489 0.37196025
0.1889198 0.10321267 0.37196025
0.19070651 0.1028755 0.37196025
0.19296721 0.10298407 0.37194633
0.19521679 0.10308475 0.37189779
0.19690864 0.10298457 0.37183526
0.19881624 0.10282634 0.37183526
0.20066857 0.10292977 0.37186652
0.20302194 0.10307616 0.37196025
0.20486957 0.10317375 0.37196025
0.24993175 0.10367112 0.37196025
0.25148714 0.10307072 0.37196025
0.25333217 0.10299609 0.37187693
0.25528392 0.10310006 0.37177277
0.25710809 0.10272319 0.37152284
0.25897145 0.10278946 0.3712728
0.26084074 0.10285729 0.37102285
0.26278251 0.10295269 0.37086666
0.2647537 0.10305846 0.37074164
0.26680011 0.10319206 0.3707104
0.26884982 0.10294836 0.37096038
0.2700887 0.10320526 0.3717103
0.1431953 0.10452889 0.37008545
0.14491352 0.10501033 0.37008545
0.1470452 0.10509236 0.37008545
0.15521075 0.10583696 0.37008545
0.15691836 0.10508259 0.37012711
0.15912397 0.10479473 0.37027293
0.16093901 0.10492101 0.37046042
0.16274586 0.10503952 0.37061667
0.16512318 0.10501076 0.37079969
0.16723609 0.10490005 0.37093952
0.1690277 0.10500132 0.37102285
0.17085285 0.10512149 0.3711687
0.17264393 0.10480807 0.37127283
0.17496164 0.10497397 0.37150201
0.17727818 0.10513572 0.3717103
0.17918269 0.10499712 0.37181026
0.1809324 0.10494406 0.37193942
0.18273206 0.1050356 0.37196025
0.18485773 0.10503231 0.37196022
0.18720354 0.10482836 0.37196025
0.18896128 0.10489123 0.37186649
0.19075499 0.10497296 0.37183526
0.19302408 0.10508788 0.37183526
0.19530037 0.1052046 0.37183526
0.19720453 0.10504731 0.37183526
0.19893539 0.10496706 0.37183526
0.2007724 0.105064 0.37183526
0.20255344 0.10500656 0.37191027
0.20450613 0.10486713 0.37196025
0.24265304 0.10582711 0.37196025
0.24460405 0.10551575 0.37196025
0.24702844 0.10479715 0.37196025
0.24921811 0.1050218 0.37193528
0.25132522 0.10520536 0.37187693
0.25316101 0.1050832 0.37183526
0.25540987 0.10529216 0.3717103
0.25727841 0.10493401 0.37152281
0.2591584 0.10500774 0.37129366
0.26098594 0.1050595 0.37098122
0.26278433 0.1049613 0.37078542
0.2648741 0.10482427 0.3707104
0.26694456 0.10496914 0.3707104
0.26850319 0.10507897 0.3707104
0.27026573 0.10500175 0.37175193
0.14523457 0.10698782 0.37008545
0.14711201 0.10676323 0.37008545
0.1488221 0.10683112 0.37008545
0.15098192 0.1073361 0.37008545
0.15312955 0.10742424 0.37008545
0.15498328 0.10722236 0.37008545
0.15703531 0.10719755 0.37018958
0.15921585 0.10689386 0.3702729
0.16103224 0.1070228 0.37046042
0.16279928 0.10711672 0.37052295
0.16503429 0.10683959 0.37068954
0.16728665 0.10697922 0.37083539
0.16909805 0.10709476 0.37096035
0.17090036 0.10720235 0.37105411
0.1727065 0.10689979 0.3711895
0.17501253 0.10706116 0.37139088
0.17733219 0.10681552 0.3716478
0.179158 0.10692751 0.37174153
0.18100432 0.10704975 0.37186649
0.1828256 0.10715523 0.37192902
0.18516962 0.10707827 0.37188885
0.18725277 0.10692526 0.37183523
0.18902732 0.10699856 0.37177277
0.19082747 0.10708505 0.37175193
0.19278681 0.10704399 0.37175193
0.19507764 0.10679565 0.37176028
0.19715735 0.10697773 0.3717103
0.19899011 0.10707547 0.3717103
0.20084505 0.1071835 0.37174153
0.20283048 0.1070651 0.37186024
0.20482363 0.1069061 0.37196022
0.2060487 0.10752593 0.37196025
0.24129792 0.10748892 0.37196025
0.24272898 0.10713698 0.37192902
0.24461049 0.10722197 0.37177277
0.24655485 0.1069071 0.37175193
0.24855328 0.10703991 0.37175193
0.25053984 0.10673857 0.37177277
0.25282472 0.10679553 0.37173527
0.25501907 0.10701926 0.37167907
0.2571108 0.10719854 0.37146029
0.2592108 0.10717342 0.37111661
0.26106149 0.10723548 0.37083539
0.26303893 0.10705619 0.37061042
0.26493695 0.10699826 0.37054375
0.26684815 0.10694393 0.37048542
0.26901218 0.10703491 0.37071037
0.27020258 0.10670537 0.37146032
0.14564265 0.10907149 0.37008545
0.14721383 0.10886744 0.37012711
0.14895046 0.10895529 0.37018958
0.15106952 0.10902505 0.37012711
0.15321875 0.10911471 0.37012711
0.15494549 0.10878275 0.37017918
0.15694121 0.10879265 0.37021044
0.15905873 0.10907303 0.37028545
0.16112733 0.10912811 0.37046042
0.162882 0.10921478 0.37049168
0.16484632 0.10879724 0.37062114
0.16701341 0.10915039 0.37072602
0.1690461 0.10899957 0.37083539
0.17092457 0.10885918 0.37092912
0.1727469 0.10897894 0.37105408
0.1750425 0.10913652 0.37123117
0.17736937 0.10889821 0.37150201
0.17922111 0.10902781 0.37164783
0.18095186 0.10896663 0.37173527
0.18283755 0.10881517 0.37177277
0.18507288 0.10892206 0.37175193
0.18730435 0.10902463 0.3717103
0.18907979 0.10909943 0.3716478
0.19089153 0.10919392 0.3716478
0.19279118 0.10904101 0.37166032
0.19497283 0.10898837 0.37166867
0.197258 0.10911129 0.37166867
0.19908935 0.10879345 0.3717103
0.20092869 0.10889423 0.3717103
0.20280752 0.10901466 0.37177277
0.20472676 0.10915484 0.37189776
0.20661797 0.10927807 0.37196025
0.24104971 0.10892143 0.37191859
0.24275735 0.10885204 0.37177277
0.24470139 0.10896607 0.3717103
0.24663162 0.10907256 0.37161654
0.2486106 0.10919914 0.37158531
0.25062603 0.10891256 0.3716478
0.25261337 0.10903891 0.3716062
0.25490379 0.1089188 0.37149599
0.25737783 0.10883278 0.37121034
0.25922355 0.10889436 0.37092909
0.26103094 0.10893928 0.37058541
0.26290983 0.10901335 0.37033543
0.26488438 0.10912594 0.37021044
0.26703796 0.10901733 0.37021044
0.26911673 0.10889311 0.37053543
0.14598434 0.11047902 0.37008545
0.14728409 0.11095075 0.37008545
0.14899671 0.11102156 0.37008545
0.15096679 0.11102023 0.37008545
0.15303826 0.11127613 0.37008545
0.1550336 0.11088183 0.37016878
0.1567793 0.1109696 0.37021044
0.15896885 0.11108188 0.37026599
0.1611778 0.11079653 0.37039793
0.16294691 0.11089403 0.37046042
0.16473438 0.11100198 0.37055418
0.16696508 0.11113166 0.37064791
0.1692751 0.11101101 0.37073541
0.17095679 0.1109322 0.37077293
0.17277986 0.1110544 0.37089789
0.17477114 0.11092017 0.37108538
0.17712446 0.1110412 0.37131029
0.17925622 0.11111218 0.37149158
0.1811529 0.11097102 0.37156031
0.18287896 0.11090658 0.37162697
0.18509117 0.11100117 0.37155756
0.1873164 0.11110175 0.37150201
0.18899016 0.11100081 0.37143531
0.19089112 0.11085214 0.37146032
0.1927081 0.11094948 0.37146032
0.19498666 0.11107305 0.37146032
0.1972893 0.11120787 0.37149155
0.199149 0.1109074 0.37158528
0.20102316 0.11102899 0.3716478
0.2028003 0.11097413 0.3717103
0.20478019 0.11085363 0.371804
0.20670715 0.1109976 0.37192902
0.20844191 0.11125039 0.37196025
0.24101155 0.11095381 0.37187696
0.24286926 0.11103138 0.37168947
0.24469073 0.1109594 0.37161031
0.24672619 0.1108208 0.37155408
0.24866472 0.11093094 0.37146032
0.25067347 0.11107078 0.37146032
0.25264791 0.11119363 0.37139782
0.25488931 0.11087951 0.37127283
0.25703433 0.11107282 0.37099159
0.25918111 0.11102086 0.37060621
0.26090503 0.11089567 0.37031043
0.26272741 0.11057055 0.37012711
0.26439127 0.11038719 0.37008545
0.26996279 0.11006435 0.3707104
0.27008039 0.11140806 0.3707104
0.14905049 0.11228158 0.37008545
0.15078558 0.11277504 0.37008545
0.15293674 0.11286787 0.37008545
0.15509294 0.11296229 0.37008545
0.15686175 0.11306769 0.37017921
0.15905125 0.11318123 0.37023127
0.1612585 0.11289602 0.37035629
0.16304721 0.11300826 0.37046042
0.16479437 0.11308985 0.37046042
0.16686289 0.11295602 0.37049612
0.16922951 0.11292197 0.37061664
0.17101982 0.11302635 0.37067914
0.17281483 0.11313197 0.37074164
0.17493974 0.1129983 0.37089786
0.17706457 0.11302022 0.37110096
0.17915902 0.11300068 0.37126034
0.18108906 0.11288226 0.37139779
0.18288162 0.11297495 0.37139779
0.18467875 0.11306891 0.37139779
0.18688989 0.11316279 0.37131453
0.18921068 0.11302258 0.37128535
0.19092762 0.11294679 0.37129366
0.19277795 0.11306524 0.37135613
0.19476922 0.11290646 0.37141863
0.19710514 0.11299105 0.37146032
0.19921099 0.11302403 0.37146032
0.20106943 0.11313859 0.37149158
0.20305777 0.11302729 0.37161031
0.20483951 0.11297435 0.37166867
0.20672131 0.11309595 0.3717103
0.20862812 0.11281059 0.37183526
0.21083085 0.11288238 0.37193525
0.21294518 0.11353623 0.37196025
0.21530174 0.11368041 0.37196025
0.21719407 0.11379756 0.37196025
0.21909261 0.11391622 0.37196025
0.23975095 0.11308428 0.37196025
0.24111164 0.11312852 0.37177277
0.24301164 0.11322689 0.3716478
0.24498864 0.11306455 0.37151033
0.24682355 0.11299857 0.37143946
0.24875666 0.11310776 0.3713353
0.25068888 0.11278777 0.37127283
0.25264272 0.11290331 0.3711791
0.25488156 0.11311643 0.37103537
0.25704896 0.11300182 0.37066039
0.25911295 0.11313555 0.37024167
0.26050165 0.11275616 0.37008545
0.27010277 0.11314501 0.37052292
0.1538744 0.1145917 0.37008545
0.15526795 0.11490688 0.37008545
0.15684645 0.11499274 0.37013546
0.15894391 0.11477296 0.37021044
0.16108227 0.11507004 0.37031046
0.16309442 0.11508743 0.37033543
0.16487026 0.11519004 0.37039793
0.16717628 0.1149973 0.3704448
0.16927475 0.1150043 0.37048125
0.17105629 0.11510428 0.37052295
0.17287357 0.11481512 0.37067917
0.17467424 0.11492367 0.37074167
0.17698936 0.11509839 0.37093952
0.17938757 0.11502246 0.37113538
0.18110381 0.11495697 0.3711895
0.18290718 0.11505804 0.37121034
0.18460532 0.1149775 0.37121034
0.18693453 0.11484629 0.37121034
0.18919517 0.11496945 0.37121034
0.19100933 0.11506952 0.37121034
0.1928447 0.11518062 0.37124157
0.194794 0.11505917 0.37133533
0.19699512 0.11502029 0.3713631
0.1992268 0.11499645 0.37143531
0.20115913 0.11485719 0.37146032
0.20300743 0.11496546 0.37146032
0.20489568 0.11509445 0.37152284
0.20675534 0.11520563 0.37152284
0.20866269 0.11492285 0.3716478
0.21091413 0.11496861 0.3717103
0.21339461 0.11481302 0.37177277
0.21528104 0.11493004 0.37177277
0.21721017 0.11506795 0.37183526
0.21914597 0.11520742 0.37189776
0.22107026 0.11533888 0.37192902
0.22255324 0.11587892 0.37196025
0.23988643 0.11485153 0.37196025
0.24124837 0.11489664 0.37177277
0.24308883 0.11496773 0.37155405
0.2449964 0.1150695 0.37142906
0.24686889 0.11515362 0.37124157
0.24881019 0.11526851 0.37114784
0.25071493 0.1149376 0.37104368
0.25263438 0.11503939 0.37089786
0.25488558 0.11490797 0.37072822
0.25728706 0.11479453 0.37033543
0.25860611 0.11438572 0.37008545
0.2699047 0.11435696 0.37008545
0.15542509 0.11705094 0.37008545
0.15712591 0.11703905 0.37016043
0.15878813 0.1169624 0.37021044
0.16100556 0.11709591 0.37030762
0.16317777 0.11678435 0.37033543
0.16492696 0.11686895 0.37033543
0.16668008 0.11695476 0.37033543
0.16892481 0.11709668 0.37043956
0.17113808 0.11721413 0.37046042
0.17292233 0.11690406 0.37054375
0.1747632 0.1170411 0.37068954
0.17674284 0.11690194 0.37083539
0.17907032 0.11701083 0.37098533
0.18117148 0.11706612 0.37108535
0.18296574 0.11716262 0.37108535
0.18485238 0.11701556 0.37111035
0.18699509 0.11695489 0.37108538
0.18926769 0.11708707 0.37110618
0.19111092 0.11679116 0.37121034
0.19293137 0.11689426 0.37121034
0.19477332 0.11700857 0.37124157
0.19665369 0.11714408 0.37133533
0.19909905 0.11711771 0.37138888
0.20129508 0.11702143 0.37146032
0.20304136 0.11695285 0.37146032
0.20497255 0.11680973 0.37146032
0.20683341 0.11692276 0.37146032
0.2086999 0.11703725 0.37146032
0.21058998 0.11716311 0.37149158
0.21296328 0.11690389 0.37158531
0.21532129 0.11705285 0.37158534
0.21712241 0.11700074 0.37161031
0.21913902 0.11688839 0.37167907
0.22108233 0.11703175 0.37174153
0.22307019 0.1171964 0.37186652
0.22489728 0.11748898 0.37196025
0.22652379 0.11788929 0.37196025
0.23932923 0.11712505 0.3719067
0.24134153 0.11707184 0.37164783
0.24316828 0.11671084 0.37146032
0.24501523 0.11678486 0.37124157
0.24693009 0.11689012 0.37111658
0.24885151 0.11699714 0.37099162
0.25077969 0.11710595 0.37086666
0.25269336 0.11720666 0.3707104
0.2551451 0.11698802 0.3704448
0.25707421 0.11672311 0.37014794
0.27147558 0.11725585 0.37046042
0.27203307 0.11662931 0.37133533
0.15536757 0.11887918 0.37008545
0.15715365 0.11900065 0.37021044
0.15891775 0.11910322 0.37027293
0.16068602 0.11920702 0.37033543
0.1630097 0.11903489 0.3704448
0.16506246 0.11901594 0.37039793
0.16678925 0.11908332 0.37033543
0.16897543 0.11877462 0.37035629
0.17122829 0.11892067 0.37046042
0.17299742 0.11901225 0.37046042
0.17485929 0.11916538 0.37064791
0.17696075 0.11888042 0.37075207
0.17909671 0.11915398 0.37092912
0.18123768 0.11876248 0.37102285
0.1830637 0.11888056 0.37108535
0.18486388 0.11897999 0.37108535
0.18693496 0.11900987 0.37108535
0.18913105 0.11931331 0.37111035
0.19124036 0.11894733 0.37121034
0.19306254 0.11905256 0.37121034
0.19478753 0.11898079 0.37121034
0.1967447 0.11886425 0.37130409
0.19859909 0.1189834 0.37133533
0.20096062 0.11915531 0.37143946
0.20336135 0.11904772 0.37146032
0.2050914 0.11896879 0.37141863
0.20693074 0.11907075 0.37137699
0.20878099 0.11875845 0.37139782
0.2106545 0.11887638 0.37139779
0.21300502 0.11902606 0.37139782
0.21536431 0.11917804 0.37139782
0.2173425 0.11904907 0.37141031
0.21915299 0.11900184 0.37143949
0.22099379 0.11896877 0.37151033
0.22306615 0.11888319 0.3716478
0.22504351 0.11904231 0.37174153
0.22706658 0.11922313 0.37189776
0.22907373 0.11981711 0.37196025
0.23101667 0.11995193 0.37196025
0.23695828 0.11919609 0.37196025
0.23867273 0.11913691 0.37183526
0.24094279 0.11921451 0.37152281
0.24323846 0.11887708 0.37129366
0.24512118 0.11896948 0.37112701
0.24700995 0.11906368 0.37096035
0.24891622 0.11873746 0.37086666
0.25084555 0.11884812 0.37074164
0.25276044 0.11895058 0.37058541
0.25463897 0.11903482 0.37036669
0.25601393 0.11908147 0.37014794
0.27155331 0.11902124 0.37033543
0.15549587 0.12102088 0.37014794
0.15725712 0.12112427 0.37021044
0.15902826 0.12082366 0.37033543
0.16078457 0.12091886 0.37036669
0.16300984 0.1210576 0.37046042
0.16515824 0.12113678 0.37036666
0.16688639 0.12120566 0.3703042
0.16896284 0.12078962 0.3703354
0.17114398 0.12115847 0.37042472
0.17302755 0.12098347 0.37048542
0.17493877 0.1208684 0.37061667
0.17676312 0.12099464 0.3707104
0.17890747 0.12108572 0.37091038
0.18118878 0.12103273 0.37104964
0.18321937 0.12105265 0.37114784
0.18501158 0.12073293 0.3711791
0.18681818 0.12083537 0.3711791
0.18890002 0.12087055 0.37118536
0.19110456 0.12117829 0.37121034
0.19319624 0.12121514 0.37121034
0.1951005 0.12106945 0.37121034
0.19683193 0.12100062 0.37121034
0.19860779 0.12095693 0.37128529
0.20103937 0.12087264 0.37137699
0.20334874 0.12101225 0.37136656
0.20517269 0.12110803 0.37130409
0.20698433 0.12119514 0.37121034
0.20884703 0.12089154 0.37125197
0.21072178 0.12101185 0.37125197
0.2127493 0.12099817 0.37125197
0.21513291 0.12078617 0.37128535
0.21731098 0.12101365 0.37127283
0.2192497 0.12116122 0.37133533
0.221294 0.12106534 0.37143531
0.22312813 0.12102807 0.37148115
0.22511777 0.12077325 0.3716478
0.22710396 0.12093662 0.37174153
0.22911717 0.121112 0.37186652
0.23108032 0.12125862 0.37189776
0.2330097 0.12096075 0.37191859
0.23494102 0.12108663 0.37187693
0.23682374 0.12076016 0.37180403
0.23865446 0.12083157 0.37158531
0.24092503 0.12091052 0.37127283
0.24326429 0.12102246 0.37105411
0.24515495 0.12112024 0.37089786
0.24705169 0.12121981 0.37074164
0.24898659 0.12090906 0.3706896
0.25090322 0.12101525 0.37054372
0.25281233 0.12111648 0.37037709
0.25468826 0.12077208 0.37021044
0.27186027 0.12132286 0.37046042
0.15542187 0.12297693 0.37008545
0.15710613 0.12332439 0.37021044
0.15911709 0.12293929 0.37029377
0.16087915 0.12303988 0.37033543
0.16292715 0.12289964 0.3703354
0.16521975 0.12282416 0.37030417
0.1669348 0.12288381 0.37021044
0.16869564 0.1229758 0.37021044
0.17096044 0.12313419 0.37033543
0.17330697 0.12304205 0.37046042
0.17507362 0.1230242 0.37064791
0.17679775 0.1229739 0.37073541
0.17875156 0.12288359 0.37092912
0.18060373 0.12302502 0.37105408
0.18292731 0.1232039 0.37121034
0.18515567 0.12290105 0.37121034
0.18696427 0.12300558 0.37121034
0.18867618 0.12293297 0.37121034
0.19102447 0.12281257 0.37121034
0.19330519 0.12294867 0.37121034
0.19513573 0.12305925 0.37121034
0.19697145 0.12317132 0.37121034
0.19888742 0.12302961 0.37121034
0.20066367 0.12298527 0.37127283
0.20286417 0.12289397 0.3713353
0.20523876 0.12282133 0.37121034
0.2071037 0.1229409 0.37121034
0.20897439 0.12306207 0.37121034
0.21085089 0.1231848 0.37121034
0.21280888 0.12305252 0.37121034
0.21478403 0.12288481 0.37121034
0.21694846 0.12300924 0.37121034
0.21936025 0.12290866 0.37130409
0.22132619 0.12307062 0.37139782
0.22328064 0.12322398 0.37146032
0.22523408 0.12295147 0.37156451
0.22711296 0.12293496 0.37166032
0.22915752 0.12282993 0.3717103
0.23114109 0.12298919 0.37177277
0.23307352 0.12311935 0.37174153
0.23499313 0.12324096 0.37167907
0.23682337 0.12288863 0.37152281
0.23897423 0.12306925 0.37121034
0.24116696 0.12291998 0.37094253
0.24314375 0.12296647 0.37076038
0.24511978 0.12281021 0.37061667
0.24703777 0.1229218 0.37049165
0.24898346 0.12304555 0.37039793
0.25095731 0.12318163 0.37033543
0.25287488 0.1232885 0.37017918
0.25429589 0.12250216 0.37014794
0.27235717 0.12328148 0.37089789
0.15522417 0.12480804 0.37008545
0.15699621 0.12492186 0.37016881
0.15918982 0.12504461 0.37021044
0.16094862 0.12514356 0.37024167
0.16312292 0.1248356 0.37026402
0.16511022 0.125044 0.37021044
0.1670502 0.12502407 0.37021044
0.16881265 0.12511788 0.37021044
0.1710266 0.12482875 0.37027296
0.17332932 0.12501271 0.37046042
0.17519596 0.12517419 0.37064791
0.17711906 0.12506667 0.37078542
0.17889206 0.12504898 0.37096035
0.18075097 0.1247821 0.37114787
0.1828451 0.12483528 0.37121034
0.18507072 0.12516788 0.37131032
0.18709706 0.12517004 0.37121034
0.18898685 0.12502334 0.37121034
0.19070499 0.12495362 0.37121034
0.19297247 0.1250827 0.37118256
0.19524795 0.12479759 0.37121034
0.19708514 0.12491145 0.37121034
0.19892761 0.12502685 0.37121034
0.20077546 0.12514377 0.37121034
0.20277195 0.12504831 0.37133533
0.20494618 0.12498954 0.37125197
0.20714995 0.12494632 0.37121034
0.20909733 0.12481289 0.37121034
0.21097547 0.12493762 0.37121034
0.21289538 0.12508512 0.37127283
0.21478584 0.12521318 0.3712728
0.21677978 0.12509803 0.37131032
0.21878414 0.12494309 0.3713353
0.22098045 0.12480059 0.37139779
0.22313395 0.12505791 0.37146032
0.22539778 0.12515804 0.37155405
0.22744104 0.1250564 0.37161031
0.22930588 0.12503158 0.37166867
0.23113565 0.12498541 0.37166032
0.23315731 0.12486461 0.37164783
0.23501885 0.12495666 0.37149155
0.23686603 0.12503991 0.37130409
0.23907222 0.12508853 0.37089789
0.24134527 0.12517127 0.37058541
0.24332826 0.1250217 0.37046042
0.24512577 0.12494749 0.37033543
0.24705851 0.12506838 0.37023127
0.24899343 0.12476107 0.37017918
0.25082174 0.1247541 0.37016878
0.25242421 0.1245611 0.37008545
0.27308768 0.124918 0.3717103
0.15528825 0.12608726 0.37008545
0.15708739 0.12704292 0.37012708
0.15927827 0.12675434 0.37021044
0.16102472 0.12684414 0.37021044
0.16277501 0.12693521 0.37021044
0.16496848 0.12705095 0.37021044
0.16712536 0.12713636 0.37011671
0.16888908 0.12723199 0.37011671
0.17067575 0.12693135 0.37021044
0.17284751 0.12699373 0.37036666
0.17529559 0.12689762 0.37064791
0.17713988 0.12704159 0.3707729
0.17901987 0.12720844 0.37096035
0.18088023 0.12694404 0.37114784
0.1827213 0.12707759 0.37123117
0.18499327 0.12680565 0.3713145
0.18720524 0.12690517 0.37121034
0.18900596 0.12700421 0.3711791
0.19079527 0.12709405 0.37111658
0.19287404 0.12712608 0.37108535
0.19511788 0.12703215 0.37104961
0.1971525 0.12704124 0.37106451
0.19902799 0.12676123 0.3711791
0.20089412 0.12689075 0.37121034
0.2028002 0.12704316 0.37130409
0.20489672 0.12707242 0.37123531
0.20724447 0.12716247 0.37121034
0.20928912 0.1270276 0.3712728
0.21117309 0.12673631 0.37133533
0.21309535 0.12688617 0.37139782
0.21502429 0.12703761 0.37146032
0.21692361 0.12716952 0.37146032
0.21882917 0.12730314 0.37146032
0.22070719 0.12699647 0.37146032
0.22276251 0.12684932 0.37146032
0.22501454 0.12708455 0.37146032
0.22696927 0.12681319 0.37155405
0.22914748 0.12729093 0.37158531
0.2314252 0.1270909 0.37153533
0.23324727 0.12703998 0.37150201
0.23500633 0.12695315 0.3713603
0.23689482 0.12675858 0.37111658
0.23868802 0.12681292 0.37083539
0.24096154 0.12689678 0.37052289
0.24326287 0.12699395 0.37024167
0.24500346 0.12694936 0.37012711
0.15715781 0.12873948 0.37008545
0.15916555 0.12885498 0.37012118
0.16112082 0.12897278 0.37016878
0.16286331 0.12905838 0.37014794
0.16489935 0.12890837 0.3701033
0.16718286 0.12841421 0.37008545
0.16894738 0.12851095 0.37008545
0.17075525 0.1290507 0.37011671
0.17318296 0.12906815 0.37031755
0.1753633 0.12901291 0.37052295
0.17724255 0.12877028 0.3707729
0.17912397 0.12893958 0.37096035
0.18096617 0.12907782 0.37105411
0.18282917 0.12922846 0.3711791
0.1850699 0.12893607 0.37119645
0.18727981 0.1290351 0.37108538
0.18895729 0.12894104 0.37101036
0.19084385 0.12879196 0.37099162
0.19292358 0.12882569 0.37096035
0.19513518 0.1291399 0.37096035
0.1972445 0.12918854 0.37096035
0.19911553 0.12890728 0.37106454
0.20103389 0.12907183 0.3711895
0.20287108 0.12876317 0.37121034
0.20473316 0.1288871 0.37121034
0.20687537 0.12894373 0.37121034
0.20920852 0.12931633 0.37133533
0.21139358 0.1289731 0.37143949
0.21318671 0.12892814 0.37146032
0.21515639 0.12880224 0.37146032
0.21705741 0.12893622 0.37146032
0.21896473 0.12907197 0.37146032
0.22087845 0.1292095 0.37146032
0.22287385 0.12908968 0.37146032
0.22469012 0.12904598 0.37146032
0.22658736 0.12874374 0.37146032
0.22881126 0.12882018 0.37146032
0.23116359 0.12917362 0.37146032
0.23338625 0.12924412 0.37142906
0.23530321 0.12906662 0.37123531
0.23698401 0.12893654 0.37096038
0.23878534 0.12899582 0.3706896
0.24089971 0.12894537 0.37033543
0.24288023 0.12893526 0.37014794
0.17125857 0.13035801 0.37008545
0.17265905 0.13089903 0.37017918
0.17497766 0.1310979 0.37037709
0.17732333 0.13089886 0.37066874
0.17919616 0.13106389 0.37083539
0.18102759 0.13078119 0.37096035
0.18286088 0.13091195 0.37102288
0.18492816 0.13094741 0.37101036
0.18706502 0.13122088 0.37091038
0.1891863 0.13098225 0.37083539
0.19088562 0.13090263 0.37079373
0.19272451 0.13102667 0.37081456
0.1947457 0.13089992 0.37091872
0.1970942 0.13100812 0.37096035
0.19924496 0.13108256 0.37102285
0.20116518 0.13125022 0.37114784
0.20302658 0.13095808 0.37121034
0.20478456 0.13090201 0.37121034
0.20678049 0.13080499 0.37130409
0.20867367 0.13094521 0.37133533
0.21062624 0.13112031 0.37146032
0.21310873 0.13110669 0.37146029
0.21532452 0.1310129 0.37146032
0.21719331 0.13070628 0.37146032
0.21910241 0.13084418 0.37146032
0.22101794 0.13098387 0.37146032
0.22293998 0.13112539 0.37146032
0.22486866 0.13126878 0.37146032
0.22676772 0.13096863 0.37146032
0.22859743 0.13092932 0.37146032
0.23062085 0.13081698 0.37146032
0.23284701 0.13089125 0.37143534
0.23510838 0.13119112 0.37126034
0.23713647 0.13115111 0.37089789
0.23895326 0.13121915 0.37064791
0.24073428 0.13126682 0.37033543
0.24206261 0.13129815 0.37008545
0.2735039 0.13077661 0.37146032
0.17296821 0.13283607 0.37011671
0.17504303 0.13280074 0.37029377
0.17738652 0.13301603 0.37052292
0.17927054 0.13319156 0.3707104
0.18110304 0.13291092 0.37083539
0.18292725 0.13303672 0.37087706
0.18463817 0.13297185 0.3708854
0.18692231 0.13281773 0.37077293
0.18916433 0.13293971 0.3707104
0.19098885 0.13305701 0.3707104
0.1928184 0.13317588 0.3707104
0.19477941 0.13307545 0.37081039
0.19690844 0.13296622 0.37091351
0.1993517 0.13282698 0.37099162
0.20129046 0.13300838 0.37114784
0.20318487 0.13315788 0.37121034
0.20516667 0.13305551 0.37128535
0.20696004 0.13302074 0.3713353
0.20885757 0.13274403 0.37142909
0.21075913 0.1328882 0.37146032
0.2126492 0.13302302 0.37146032
0.21482357 0.13309157 0.37146032
0.21715112 0.13302295 0.37142462
0.21921618 0.13302706 0.37135613
0.22101076 0.1329768 0.37133533
0.2230273 0.13287193 0.37136659
0.22501409 0.13305114 0.37146032
0.22697055 0.13320985 0.37149158
0.22904751 0.13313222 0.37158531
0.230758 0.13290121 0.37156034
0.23274769 0.13276786 0.37149155
0.23491697 0.13280869 0.3713603
0.23706067 0.13304175 0.37098539
0.23911195 0.13301353 0.37064791
0.24089487 0.1330622 0.37033543
0.24222468 0.13309422 0.37008545
0.273884 0.13272257 0.37021044
0.2742542 0.1329017 0.37071037
0.17467052 0.13489844 0.37016878
0.17688385 0.13487045 0.37042472
0.17936525 0.13492139 0.37067917
0.18118072 0.13504419 0.3707104
0.18304744 0.13520266 0.37083539
0.1849062 0.13504249 0.37078542
0.18691458 0.13486291 0.3707104
0.18900752 0.13510688 0.3707104
0.19110782 0.13480788 0.3707104
0.192939 0.13492858 0.3707104
0.19479181 0.13506225 0.37074164
0.19668326 0.13522047 0.37083539
0.19890554 0.13486534 0.37096035
0.20107229 0.13514389 0.37102285
0.20329675 0.13491032 0.3711791
0.20519908 0.13506383 0.37124157
0.20712517 0.13523056 0.37133533
0.20903033 0.13495994 0.37143946
0.21082011 0.13491885 0.37146032
0.21278596 0.1347965 0.37146032
0.2146658 0.13492383 0.37142906
0.21696788 0.13505059 0.37129363
0.21930853 0.135199 0.37121034
0.22130165 0.13508394 0.37121034
0.22315364 0.13506754 0.37127283
0.22512402 0.1348144 0.37139782
0.22710106 0.13498691 0.37146032
0.22910507 0.13517277 0.37155408
0.23115277 0.13507651 0.37158531
0.23293467 0.13500679 0.37148115
0.23480944 0.13468406 0.37139782
0.23705143 0.13475403 0.37104368
0.2392731 0.13481164 0.37064791
0.24105796 0.13486131 0.37033543
0.24238923 0.13489401 0.37008545
0.17479584 0.13706452 0.37014794
0.1769848 0.13685735 0.37041876
0.17901002 0.13703966 0.37058541
0.18129373 0.13679042 0.3707104
0.18313125 0.13692817 0.3707729
0.18495835 0.13705595 0.37080416
0.18672779 0.13713905 0.3707104
0.18912253 0.13710919 0.3707104
0.19125922 0.13700143 0.3707104
0.1929882 0.13694231 0.3707104
0.19489945 0.13680889 0.3707104
0.19679251 0.13696936 0.37080413
0.19867507 0.13712004 0.37086663
0.20102377 0.13702215 0.37096035
0.20317988 0.1371711 0.37101394
0.20529719 0.13681027 0.3711791
0.20720735 0.1369679 0.37124157
0.209124 0.13712734 0.37130409
0.21113165 0.13703585 0.37138528
0.21291222 0.1369877 0.37137699
0.21475174 0.13709061 0.3712728
0.21686403 0.13669743 0.37121034
0.21915896 0.1370405 0.37118536
0.22135597 0.13711821 0.3711791
0.22330195 0.13727905 0.37121034
0.22527398 0.13702871 0.3713353
0.22725305 0.1367788 0.37146032
0.22920118 0.13693294 0.37146032
0.23115635 0.13708907 0.37146032
0.23311861 0.13724726 0.37146032
0.2349425 0.13689546 0.37129363
0.23677178 0.13697253 0.37106451
0.23898636 0.13702601 0.37065485
0.24111661 0.1369082 0.37028545
0.24251428 0.13624623 0.37008545
0.17490582 0.13880736 0.37014794
0.1768153 0.13901275 0.37039793
0.17867145 0.13917291 0.37052292
0.18097956 0.13894412 0.37069651
0.1832054 0.13896053 0.37083539
0.1850919 0.13882121 0.37083539
0.18691024 0.13894081 0.37083539
0.18870172 0.13903868 0.3707729
0.19098777 0.13919261 0.37077287
0.19333462 0.1390768 0.37073538
0.19505733 0.13901149 0.3707104
0.19679734 0.13895662 0.3707104
0.19875421 0.13885099 0.3707729
0.20061032 0.13898225 0.3707729
0.2029956 0.13918798 0.37087703
0.20537944 0.13896839 0.37102285
0.20721121 0.13896286 0.37113535
0.20920947 0.13886979 0.37121034
0.21109855 0.13901004 0.37121034
0.2129937 0.13915215 0.37121034
0.214895 0.13929614 0.37121034
0.21675384 0.13898762 0.3711895
0.21874095 0.13881008 0.37108538
0.22116843 0.13893934 0.37108535
0.22345334 0.1390707 0.37121034
0.22542742 0.1392477 0.37127283
0.2273334 0.13883638 0.37146032
0.22908834 0.13897732 0.37146032
0.23131469 0.13888949 0.37146032
0.23327905 0.13905011 0.37146032
0.23513189 0.13914254 0.37127283
0.23691039 0.13918996 0.37096038
0.2386729 0.13922761 0.37061664
0.24089587 0.13900027 0.3702521
0.17504573 0.14099096 0.37014794
0.17679031 0.14096656 0.37026045
0.17875609 0.14090057 0.37046042
0.18064986 0.14108843 0.37064791
0.18308468 0.14110087 0.37076396
0.18524188 0.14101849 0.37083539
0.18704736 0.14071175 0.37086666
0.18888831 0.14084671 0.37089789
0.19070248 0.14095956 0.37086663
0.19298135 0.14110604 0.37083539
0.19525082 0.1412431 0.3707729
0.19713834 0.14109106 0.3707104
0.19888532 0.14103957 0.3707104
0.20070963 0.1407298 0.3707104
0.20257272 0.14086479 0.3707104
0.20497908 0.14108367 0.37083539
0.20748226 0.14105482 0.37098536
0.20930316 0.14104097 0.37106451
0.21120523 0.14076909 0.37114787
0.21313784 0.14093715 0.37121034
0.21504104 0.14108332 0.37121034
0.21691394 0.14120765 0.37114787
0.21886604 0.1410726 0.37108535
0.22067642 0.14103737 0.37108538
0.22260317 0.14076528 0.37114787
0.22457525 0.14094384 0.37121034
0.22663122 0.14117201 0.37139782
0.22890474 0.14093049 0.37146032
0.23081329 0.14090797 0.37146032
0.23315492 0.14092262 0.37146032
0.23525719 0.140927 0.37121034
0.23701735 0.14096363 0.37086663
0.23880154 0.14101395 0.37055415
0.24036224 0.14087303 0.37016878
0.17384434 0.14350757 0.37008545
0.17518806 0.14317963 0.37014794
0.17712024 0.14309123 0.37028545
0.17880023 0.14291292 0.37046042
0.1807681 0.14284572 0.37064791
0.18260831 0.14298975 0.3707104
0.18493991 0.14319034 0.37083539
0.18722798 0.14293596 0.37091872
0.18907662 0.14307746 0.37096035
0.19087726 0.14276206 0.37096035
0.19291934 0.1427732 0.37083539
0.19510478 0.14307794 0.37076038
0.19719806 0.14312243 0.3707104
0.19905283 0.14325686 0.3707104
0.20084505 0.14292462 0.37064791
0.20271014 0.14306213 0.37064791
0.20458025 0.14278026 0.3707104
0.20681536 0.14291085 0.3708604
0.20914733 0.14329971 0.37096035
0.21135058 0.14297874 0.37108538
0.21315379 0.14294867 0.37111035
0.21518928 0.14287427 0.37121034
0.21710074 0.14302461 0.37121034
0.21894486 0.14312874 0.37108535
0.22086859 0.14328298 0.37108535
0.22279741 0.14301336 0.37114784
0.22477023 0.14276834 0.37127283
0.22679043 0.14297576 0.37139779
0.2287803 0.14316127 0.37146032
0.23081262 0.14306156 0.37146032
0.2328517 0.14291905 0.37144247
0.23510475 0.14278516 0.37116033
0.23714682 0.14275235 0.37080413
0.23885211 0.14275549 0.37036666
0.24020392 0.14280115 0.37014794
0.171336 0.14596736 0.37008545
0.17303634 0.14476565 0.37008545
0.17507038 0.14502962 0.37021044
0.1771743 0.14511353 0.3703042
0.17912297 0.14503577 0.37046042
0.18089806 0.14503123 0.37060627
0.18272997 0.14475268 0.3707104
0.184838 0.14482591 0.37076038
0.18707539 0.14518274 0.37083539
0.18917204 0.14524093 0.37083539
0.19097377 0.14492716 0.37083539
0.19278026 0.14503342 0.37077287
0.19490217 0.14491151 0.3707104
0.1973159 0.14488637 0.37067914
0.19912198 0.14498617 0.37058541
0.20098341 0.14512435 0.37058541
0.20285043 0.14526442 0.37058541
0.20474522 0.14500096 0.3706896
0.20663422 0.14472991 0.3707729
0.20862401 0.14494787 0.37096035
0.21083514 0.14505647 0.3710354
0.21326484 0.1452052 0.37108538
0.21525252 0.14492132 0.37118536
0.21725319 0.1448217 0.37121034
0.21909925 0.14492747 0.37108535
0.22102502 0.14508405 0.37108535
0.22297624 0.14525488 0.37111658
0.22493212 0.14500062 0.37121034
0.22693288 0.14477123 0.37136656
0.22894403 0.1449717 0.37146032
0.23090503 0.14513773 0.37146032
0.23279478 0.14525697 0.37133533
0.23495878 0.14481199 0.37113225
0.2370791 0.14508447 0.37067467
0.23898272 0.14497438 0.37023127
0.17142224 0.14728519 0.37008545
0.17275327 0.1469494 0.37012711
0.17488702 0.14686909 0.37021044
0.17730844 0.14688715 0.37033543
0.17917168 0.14705768 0.37046042
0.18101034 0.14720517 0.37052292
0.18286417 0.14694522 0.37066874
0.1845993 0.14690393 0.3707104
0.18695092 0.14680357 0.3707104
0.18923771 0.14696513 0.3707104
0.19107309 0.14709641 0.3707104
0.19291362 0.14722948 0.3707104
0.19483148 0.14710413 0.3707104
0.1968905 0.14695147 0.37066355
0.19926023 0.14676756 0.37058541
0.20112354 0.14690781 0.37058541
0.20300962 0.14706236 0.37061667
0.20493621 0.14724359 0.3707104
0.20685053 0.14699148 0.37083539
0.20877084 0.14673963 0.37096035
0.21069977 0.14691329 0.37102285
0.21263528 0.14708894 0.37108535
0.2150058 0.14698844 0.37110618
0.21716912 0.14712918 0.37106749
0.21915391 0.14697322 0.37103534
0.22114652 0.14686428 0.37102285
0.22308072 0.14702526 0.37102288
0.22507858 0.14722557 0.37111658
0.22706832 0.14699118 0.37125197
0.22903314 0.1467368 0.37133533
0.23097615 0.14689285 0.37130409
0.23286727 0.14701399 0.3711791
0.23470511 0.14710003 0.37096038
0.23694484 0.14717029 0.37058541
0.23865248 0.14717379 0.37014794
0.17150937 0.1486049 0.37008545
0.1728951 0.14914644 0.37011671
0.174804 0.1490449 0.37021044
0.17688204 0.14893939 0.37031978
0.1792793 0.14881259 0.37042916
0.18110412 0.14894962 0.37046042
0.18294945 0.14910087 0.37052292
0.18489704 0.14901426 0.37063542
0.1868241 0.14886247 0.37067467
0.18892561 0.1491394 0.37067467
0.19120625 0.1488753 0.3707104
0.19304857 0.1490103 0.3707104
0.19489616 0.14914715 0.3707104
0.19699338 0.14902885 0.3706854
0.19901852 0.14900044 0.37067467
0.20104785 0.14897236 0.37066039
0.203188 0.14887707 0.37067914
0.20511696 0.1490609 0.3707729
0.20708752 0.14927197 0.37092912
0.20895755 0.1489851 0.37096035
0.21086849 0.14872408 0.37105411
0.21277034 0.14887713 0.37105411
0.21466044 0.1490197 0.37102285
0.21681826 0.14908527 0.37096035
0.21922307 0.1492105 0.37091872
0.22124898 0.14905909 0.3708562
0.2231876 0.14879888 0.37092912
0.22516811 0.14898944 0.37099162
0.227137 0.14916962 0.37102285
0.22911574 0.14892639 0.37112701
0.23105402 0.1490811 0.37108538
0.23292255 0.14876106 0.37099162
0.23480108 0.1488736 0.37083539
0.23701602 0.14892851 0.37041879
0.23874673 0.14851749 0.37008545
0.17313921 0.15076195 0.37008545
0.17485327 0.15107122 0.37021044
0.17691666 0.15095705 0.37023544
0.17905119 0.15107003 0.37031978
0.18112206 0.1509521 0.37038544
0.18301564 0.1508252 0.37039793
0.18485203 0.15096769 0.37042916
0.18669355 0.15111201 0.37046042
0.18913651 0.15112673 0.37053186
0.19124396 0.15089864 0.37066039
0.19318548 0.15079503 0.3707104
0.19503494 0.15093386 0.3707104
0.19688977 0.15107459 0.3707104
0.19875006 0.15121719 0.3707104
0.20104702 0.15094952 0.3707104
0.20307569 0.15110822 0.3707104
0.20526522 0.1508574 0.3707729
0.20722038 0.15105863 0.37089789
0.20914748 0.15123647 0.37096035
0.21101896 0.15094818 0.37098119
0.21289916 0.15108712 0.37093952
0.21476349 0.15078843 0.37092912
0.21662463 0.15090971 0.37083539
0.2189669 0.15106969 0.37073123
0.22132988 0.15124103 0.37064791
0.22323823 0.15096223 0.37066874
0.2251083 0.15096721 0.37073538
0.22723044 0.15093899 0.37089786
0.22918905 0.15111129 0.37089789
0.23111577 0.15126038 0.37083539
0.23300488 0.15095468 0.37077287
0.23483886 0.15103976 0.37054375
0.23690295 0.1505931 0.37028545
0.1735388 0.15225591 0.37008545
0.17494664 0.15281688 0.37014794
0.17677732 0.15296723 0.37021044
0.17888451 0.15305474 0.37028545
0.18119986 0.15317893 0.37033543
0.18314733 0.1530235 0.37033543
0.18493675 0.15270968 0.37033543
0.18681121 0.15288171 0.37042916
0.18865971 0.15302989 0.37046042
0.19102101 0.15297221 0.37062708
0.19317158 0.15314469 0.3707104
0.19517574 0.15272461 0.3707104
0.19703244 0.15286736 0.3707104
0.19889469 0.15301205 0.3707104
0.20076248 0.15315869 0.3707104
0.20289512 0.15305962 0.3707104
0.2049481 0.15304507 0.3707104
0.20732042 0.15282333 0.37080413
0.20926675 0.15301652 0.37089786
0.2111312 0.15314737 0.37083539
0.21300133 0.15328026 0.3707729
0.2148609 0.15297927 0.3707521
0.2166125 0.15291402 0.37066039
0.2190326 0.1528157 0.37056458
0.22138479 0.15298109 0.37046042
0.22332357 0.15315026 0.37046042
0.2253865 0.15308769 0.3705354
0.22725493 0.15309054 0.37058541
0.22920915 0.15283464 0.37064791
0.23117585 0.15301165 0.37064791
0.23305154 0.15312642 0.37049165
0.23493296 0.15324329 0.37033543
0.23666033 0.15271369 0.37018543
0.17510271 0.15503658 0.37014794
0.17690364 0.15474442 0.37021044
0.17875649 0.15491176 0.37030417
0.18103862 0.15508758 0.37033543
0.18331267 0.15525295 0.37033543
0.18510394 0.15494068 0.37033543
0.18686594 0.15492205 0.37041041
0.18879685 0.15481849 0.37046042
0.19071707 0.15502296 0.37061667
0.1928819 0.15513471 0.3707104
0.19520381 0.15511189 0.37078184
0.19721046 0.15469038 0.3707729
0.19905812 0.15482409 0.37074164
0.20091115 0.15495977 0.3707104
0.20278661 0.15511051 0.3707104
0.20491374 0.15500477 0.3706854
0.20709072 0.15510798 0.37066352
0.20931768 0.15474811 0.3707104
0.21120103 0.15489386 0.37067914
0.21309033 0.15504171 0.37064791
0.21493122 0.15515244 0.37052292
0.21691427 0.15504786 0.3705104
0.21868493 0.15499501 0.37043956
0.22071199 0.15484802 0.37037709
0.22310682 0.15496559 0.37028545
0.22534789 0.1550819 0.3703042
0.22732097 0.15527102 0.37033543
0.22923769 0.15499158 0.37033543
0.23110446 0.1549896 0.37036043
0.23309559 0.15486886 0.37027293
0.23480387 0.15482336 0.37012711
0.17539108 0.15711536 0.37012711
0.17706417 0.15697175 0.37021044
0.17879441 0.15693806 0.37026042
0.18071614 0.15684021 0.37033543
0.18299149 0.15700758 0.37033543
0.18532087 0.15721746 0.37042916
0.18723974 0.15710683 0.37046042
0.18889065 0.15689468 0.3705104
0.19089033 0.15684485 0.37067914
0.19280328 0.15704086 0.37080416
0.19472279 0.15723887 0.37092912
0.19700924 0.15696998 0.37092468
0.19901292 0.15692605 0.3708604
0.20106195 0.15676503 0.3707104
0.20292228 0.15690467 0.37067917
0.20473634 0.15700665 0.37055418
0.20684847 0.15705699 0.37046042
0.2091836 0.15702179 0.37046045
0.21126617 0.15706216 0.37043956
0.21314563 0.15677986 0.37046042
0.21504201 0.15693192 0.37042919
0.21692626 0.1570729 0.37036669
0.21879792 0.15720284 0.37027293
0.22076491 0.15708287 0.37021044
0.22291538 0.15696374 0.37016356
0.22542891 0.15684503 0.37014794
0.22738442 0.15702358 0.37014794
0.22915506 0.15702744 0.37012711
0.23122498 0.15646882 0.37014794
0.23315464 0.15619363 0.37014794
0.17581189 0.15905294 0.37008545
0.17721245 0.15919158 0.37017921
0.1791465 0.15910807 0.37028545
0.18077905 0.15889196 0.37033543
0.18268652 0.15877873 0.37036669
0.18501724 0.15899104 0.37046042
0.18730906 0.15916595 0.37046042
0.18928289 0.15909889 0.37058541
0.1909788 0.15892141 0.3707104
0.1929809 0.15887025 0.37086666
0.1948863 0.15905754 0.37096035
0.19674839 0.1592067 0.37096035
0.1990266 0.15892789 0.37092465
0.20111196 0.15917914 0.37079969
0.20295529 0.15894043 0.37058541
0.20484161 0.15877973 0.37046042
0.20666178 0.15888518 0.37033543
0.20897348 0.15904248 0.37023127
0.21134046 0.15923862 0.37021044
0.21323292 0.15896735 0.3702521
0.21504104 0.15894803 0.37026042
0.21702281 0.15884449 0.37024167
0.21893302 0.15900317 0.37021044
0.22081223 0.15913716 0.37011671
0.22269046 0.15884192 0.37008545
0.22406124 0.15805876 0.37008545
0.1759432 0.16084245 0.37008545
0.17733026 0.16096939 0.37014794
0.17920434 0.16115837 0.37027293
0.1811488 0.16108115 0.37038544
0.18279962 0.1608782 0.37046042
0.18469884 0.16075456 0.37046042
0.18699199 0.16093154 0.37046042
0.1893405 0.16115217 0.37055418
0.19132563 0.16109161 0.3706854
0.19301532 0.1609062 0.37078542
0.19501913 0.1608537 0.37092912
0.19689964 0.16101857 0.37096035
0.19875252 0.16115831 0.37092912
0.20101285 0.16128504 0.37077293
0.20329177 0.16110361 0.3705104
0.20497186 0.16099761 0.37033546
0.20668307 0.16091487 0.37021044
0.20887074 0.16070341 0.37011045
0.21139376 0.16055182 0.37008545
0.21334746 0.16117711 0.37008545
0.21537955 0.16111501 0.37016043
0.21710634 0.16092622 0.37021044
0.2190889 0.16082093 0.37017918
0.22079371 0.16078918 0.37008545
0.17689276 0.16291015 0.37013903
0.17938621 0.1629976 0.37036666
0.18125336 0.16317731 0.37046042
0.18316264 0.16306522 0.3704854
0.18479481 0.1628429 0.3705104
0.18670726 0.16272791 0.37052292
0.18882406 0.16281013 0.37053543
0.19108164 0.16319044 0.37058541
0.19332854 0.1630519 0.3706854
0.19511552 0.16304415 0.37075207
0.19695345 0.16275248 0.3707729
0.19882423 0.16290791 0.3707729
0.20109166 0.16304111 0.37062708
0.20332019 0.16314061 0.37039793
0.20510548 0.16322066 0.37021044
0.20688824 0.16287377 0.37008545
0.20822856 0.16208513 0.37008545
0.21539548 0.16272223 0.37008545
0.21745326 0.16260621 0.37008545
0.21903412 0.16244759 0.37008545
0.22061889 0.1622899 0.37008545
0.1754082 0.16571705 0.37008545
0.17683896 0.16513929 0.37016043
0.178743 0.16486035 0.37029377
0.18112707 0.16505165 0.37046042
0.18328413 0.16518055 0.37058541
0.18521331 0.1650829 0.37063542
0.18693125 0.16502747 0.37060621
0.18872735 0.16471213 0.37058541
0.19084617 0.16479325 0.37058541
0.19308752 0.16515726 0.37058541
0.19520392 0.16522978 0.37055415
0.19704856 0.1649446 0.37058541
0.19888742 0.16507496 0.37052295
0.20070797 0.16476464 0.37049165
0.20295422 0.16487916 0.37029377
0.20521832 0.16500595 0.37011668
0.17688634 0.16718848 0.37011671
0.17883122 0.16711815 0.37023544
0.1807666 0.16686469 0.37041876
0.1831363 0.16703908 0.3705354
0.18528031 0.16715318 0.37061667
0.18710583 0.16728753 0.37058541
0.18888257 0.16695492 0.37052295
0.1906189 0.16691136 0.3705104
0.19298305 0.16681565 0.37046042
0.1953111 0.16701093 0.37046042
0.19714668 0.16714135 0.37039793
0.19895372 0.1672457 0.37027293
0.20079212 0.16695113 0.3702729
0.20291677 0.16682322 0.37013903
0.20485246 0.16632295 0.37008545
0.17743047 0.16856623 0.37008545
0.17899127 0.16900606 0.37012711
0.18079832 0.16907395 0.37023541
0.18276605 0.16897057 0.37035328
0.18508217 0.16896954 0.37046042
0.18719311 0.16905132 0.37046042
0.18902493 0.1691895 0.37042916
0.19093761 0.16906936 0.37041041
0.19284542 0.16889547 0.37035331
0.19493097 0.16901796 0.3702729
0.19720767 0.16888534 0.37021044
0.19886802 0.16884379 0.37012711
0.20038405 0.16865623 0.37008545
0.18076491 0.17063352 0.37008545
0.18266377 0.17126572 0.37014794
0.18485272 0.17092499 0.37025729
0.18725082 0.17078964 0.37027293
0.18908371 0.17092976 0.37024167
0.19092169 0.17107198 0.37021044
0.19278091 0.17123072 0.37021044
0.19505334 0.17095709 0.37017471
0.19685619 0.17084941 0.37008545
0.18505922 0.17280982 0.37011668
0.18693282 0.17299144 0.37017471
0.18922442 0.17274587 0.37021044
0.19108042 0.17290464 0.37021044
0.19292548 0.17305091 0.37017918
0.19474292 0.17317021 0.37008545
0.1872716 0.17458785 0.37011671
0.18937004 0.17499171 0.37010625
0.1911768 0.17468315 0.37008545
0.19303976 0.17484623 0.37008545
0.19439894 0.17450912 0.37008545
0.19129887 0.17606387 0.37008545
0.19269663 0.17618714 0.37008545
-0.25064436 -0.21752134 0.37396005
-0.24928463 -0.21665315 0.37391838
-0.24740116 -0.21658444 0.37396005
-0.24536863 -0.2168068 0.37396005
-0.24363361 -0.21645208 0.37371007
0.2409589 -0.21629448 0.37396005
-0.24515896 -0.21529439 0.37396005
-0.24279073 -0.21521419 0.37342882
-0.24111085 -0.21464022 0.3727102
0.24105024 -0.21525852 0.37316847
-0.24721391 -0.21205208 0.37383506
-0.24460341 -0.21302263 0.37383506
-0.24298996 -0.21279421 0.37346011
-0.24093878 -0.21302122 0.37279353
0.24143644 -0.21314499 0.37303513
-0.24862541 -0.21079129 0.37389755
-0.24645555 -0.21134108 0.3735851
-0.24507533 -0.21089767 0.37337676
-0.24327378 -0.21091086 0.3732101
-0.24092583 -0.21128546 0.37258518
0.2417593 -0.21121925 0.37342882
0.24256498 -0.21095663 0.3726685
-0.24910766 -0.20865764 0.37375173
-0.2470862 -0.20935646 0.37336636
-0.24487224 -0.2089812 0.3731789
-0.24265924 -0.20948009 0.37277266
-0.2413387 -0.2091016 0.37233523
0.24293327 -0.20911473 0.37314761
0.24447143 -0.20847644 0.37241855
-0.24909244 -0.20692618 0.37354341
-0.24669203 -0.20726067 0.3731789
-0.24498241 -0.20693919 0.37296015
-0.2432439 -0.20702809 0.37258521
-0.24157704 -0.20761152 0.37221023
0.24333246 -0.2072974 0.3736684
0.24475594 -0.2069813 0.37296015
0.24687946 -0.20696731 0.3725602
-0.2504802 -0.20518136 0.37396005
-0.24892831 -0.20463592 0.37321013
-0.24722187 -0.20520347 0.3728039
-0.24513298 -0.20495939 0.37250188
-0.24272099 -0.20526877 0.37208524
-0.1505691 -0.20573567 0.37208524
-0.14919326 -0.20516229 0.37208524
-0.14754634 -0.20487922 0.37208524
-0.14458124 -0.20465219 0.37208524
-0.14300209 -0.20473671 0.372179
-0.1410217 -0.20475081 0.37231022
-0.13899995 -0.20457438 0.37261021
-0.13708283 -0.20467928 0.37289765
-0.13500872 -0.20471786 0.37325183
-0.13295065 -0.20478186 0.37364757
-0.13102809 -0.20488067 0.37391004
-0.12995677 -0.20427911 0.37396005
0.24354517 -0.20532086 0.37389755
0.24492274 -0.20494558 0.37341842
0.24720609 -0.20536074 0.37278518
0.24854325 -0.20462203 0.37208524
-0.24887119 -0.2028273 0.37352258
-0.24683356 -0.20312445 0.37261644
-0.24466859 -0.20311083 0.37212691
-0.14905421 -0.20329526 0.37208524
-0.14727233 -0.2031582 0.37208524
-0.14487603 -0.20289716 0.37211022
-0.14288235 -0.20289285 0.37221023
-0.14117222 -0.20284803 0.37236646
-0.13905418 -0.20281899 0.37260604
-0.13696936 -0.20283791 0.37292892
-0.13491632 -0.20290522 0.37333512
-0.13283035 -0.20292407 0.37364757
-0.13116273 -0.20294125 0.37389755
0.24524386 -0.20350134 0.37371007
0.24697202 -0.20302676 0.37326565
0.24895313 -0.2027342 0.37251022
-0.26573679 -0.20178524 0.37396005
-0.2489783 -0.200767 0.3735851
-0.24683294 -0.20103177 0.37291017
-0.24468271 -0.20025305 0.37221023
-0.14888321 -0.20096976 0.37208524
-0.14713728 -0.20129877 0.37208524
-0.14495865 -0.20118912 0.3721894
-0.1428002 -0.20110479 0.37233523
-0.14109156 -0.20106104 0.37249148
-0.13896739 -0.20102173 0.3727102
-0.13688046 -0.20103556 0.37302265
-0.13522348 -0.20106554 0.37330389
-0.13315804 -0.20111258 0.3736684
-0.13105692 -0.20110616 0.37392879
0.24756898 -0.20139354 0.37377256
0.24904549 -0.2008419 0.37343508
0.25078571 -0.20102675 0.37251022
0.25215867 -0.20028932 0.37221023
-0.25099447 -0.19890817 0.37391838
-0.24889471 -0.19896866 0.37355384
-0.24710116 -0.19859356 0.37321013
-0.24523708 -0.19903247 0.37255394
-0.15001614 -0.19829001 0.37208524
-0.14872736 -0.19866902 0.37211651
-0.14701231 -0.19903822 0.3721894
-0.14496498 -0.19906814 0.37231961
-0.14296615 -0.19906321 0.37246022
-0.14100066 -0.19926153 0.37258518
-0.13889004 -0.19924001 0.37283516
-0.13679321 -0.19923767 0.37311637
-0.13513769 -0.199268 0.37339762
-0.1330554 -0.19928752 0.37371007
-0.13139054 -0.19930486 0.37396005
0.24957597 -0.19941014 0.37383506
0.25101706 -0.19911793 0.37314764
0.25263447 -0.19899702 0.37242895
-0.26360291 -0.19641218 0.37346011
-0.25085545 -0.19692068 0.37383506
-0.24882716 -0.19718613 0.37354341
-0.24711905 -0.19647209 0.37312683
-0.24504715 -0.19712842 0.3726477
-0.15077262 -0.196509 0.37208524
-0.14905189 -0.19687094 0.37214771
-0.14689402 -0.19678992 0.37230399
-0.145183 -0.19674389 0.37246022
-0.14294544 -0.19700597 0.37261647
-0.14092405 -0.19706692 0.37279353
-0.13905087 -0.1971606 0.372978
-0.13701729 -0.19691652 0.37325701
-0.13504307 -0.19704258 0.37354341
-0.13295041 -0.19704437 0.37382117
-0.13130476 -0.1979228 0.37396005
0.25127605 -0.19759257 0.37362674
0.25253692 -0.19696741 0.37288514
-0.26290047 -0.19463576 0.37329343
-0.25058025 -0.19538586 0.37371007
-0.24908929 -0.19488026 0.37333512
-0.24703623 -0.19471399 0.37279353
-0.24515094 -0.1951112 0.37239772
-0.24397431 -0.19530946 0.37208524
-0.15067303 -0.19512632 0.37208524
-0.14894587 -0.1950608 0.37221023
-0.14680225 -0.19499765 0.37239772
-0.14510483 -0.19496882 0.37258521
-0.14297581 -0.19492193 0.37279353
-0.14084588 -0.19487225 0.37299141
-0.13915519 -0.1948498 0.37317887
-0.13703088 -0.19480528 0.37337676
-0.13494703 -0.19481765 0.3736788
-0.13302052 -0.19489887 0.37391004
0.25340351 -0.19495034 0.37287685
-0.2648555 -0.1924832 0.37296015
-0.26326871 -0.19302467 0.37333509
-0.26115668 -0.19237973 0.37379339
-0.25860983 -0.1921387 0.37396005
-0.25246572 -0.19283797 0.37396005
-0.25113735 -0.19305028 0.37371007
-0.24882603 -0.19295323 0.37302268
