# .PCD v0.7 - Point Cloud Data file format
VERSION 0.7
FIELDS x y z
SIZE 4 4 4
TYPE F F F
COUNT 1 1 1
WIDTH 1403
HEIGHT 1
VIEWPOINT 0 0 0 1 0 0 0
POINTS 1403
DATA ascii
0.11517986 -0.14483801 0.381428
0.11690588 -0.14491343 0.38145924
0.11908782 -0.14503421 0.3815634
0.121258 -0.14513683 0.38161546
0.12299423 -0.14521635 0.38164669
0.12496702 -0.14519393 0.38160926
0.12712964 -0.14519145 0.38152173
0.1289691 -0.14494619 0.3814384
0.13097611 -0.14486592 0.38128743
0.13306901 -0.14517285 0.38124505
0.13486886 -0.14492014 0.38115928
0.13694017 -0.14465258 0.3811343
0.13907509 -0.14494941 0.38120928
0.14111103 -0.14497688 0.38127178
0.14291537 -0.14510508 0.38139677
0.14470039 -0.14521074 0.38145924
0.14704506 -0.14515324 0.38151279
0.1491465 -0.14502932 0.38158426
0.15087374 -0.14465147 0.38152173
0.15291783 -0.14466842 0.38153425
0.15511478 -0.14499862 0.38165921
0.15718471 -0.14503329 0.38170922
0.15900093 -0.14514893 0.38177171
0.16082156 -0.14526582 0.38183421
0.16304664 -0.14494199 0.38183424
0.16521156 -0.14488955 0.38185921
0.16708419 -0.14471643 0.38183421
0.16889593 -0.14481519 0.38183421
0.17071183 -0.1449154 0.38183421
0.17301629 -0.14506657 0.38189673
0.17532757 -0.14521983 0.3819592
0.17723498 -0.14506336 0.3819592
0.17896847 -0.1449865 0.3819592
0.18070567 -0.14491054 0.3819592
0.18289769 -0.1446846 0.3819592
0.18511708 -0.14498711 0.38193423
0.1872119 -0.14500143 0.38186544
0.18904179 -0.14509228 0.38180298
0.19089171 -0.1451966 0.38177174
0.19276211 -0.14531441 0.38177171
0.1949286 -0.14487737 0.38172486
0.19710302 -0.14494446 0.38170922
0.19925494 -0.14481568 0.38170922
0.20118095 -0.14496386 0.38177174
0.20307983 -0.14508995 0.38177171
0.20496756 -0.14520587 0.38174048
0.20682684 -0.14529981 0.38164672
0.20899476 -0.14497732 0.38158426
0.21100865 -0.14464478 0.38152173
0.21314284 -0.14488806 0.38153419
0.21537125 -0.14496158 0.38155299
0.21734807 -0.14512382 0.38161546
0.21924216 -0.14522851 0.38152173
0.22112361 -0.14532319 0.38139677
0.22305009 -0.14512989 0.38120928
0.22481661 -0.14503063 0.38106346
0.22668847 -0.1446819 0.3809593
0.22866526 -0.14483064 0.3809593
0.23086385 -0.14486524 0.38083431
0.23300478 -0.14508933 0.38074058
0.23511508 -0.1452924 0.38058433
0.23727801 -0.14529853 0.38036561
0.23861066 -0.14531064 0.3800844
-0.038575746 -0.14311308 0.3800844
-0.03714877 -0.14292291 0.38018858
-0.035102762 -0.14291351 0.3802233
-0.033053119 -0.14288707 0.38020942
-0.031004548 -0.14326924 0.38014689
-0.028956782 -0.14365256 0.3800844
-0.026502164 -0.14363188 0.3800844
-0.024863282 -0.14319375 0.3800844
-0.022823082 -0.14320265 0.38014689
-0.020784661 -0.14322455 0.38024062
-0.01915925 -0.14328536 0.38042814
-0.017115749 -0.1428712 0.38048711
-0.015155395 -0.14304027 0.38050932
-0.01302942 -0.1432678 0.38045934
-0.010986379 -0.14326052 0.38045937
-0.008944191 -0.14326252 0.3804802
-0.0069011562 -0.14324996 0.38045937
-0.0048588482 -0.14324665 0.38045934
-0.0028171181 -0.14326812 0.38052186
-0.001101769 -0.14305449 0.38063434
0.00085960957 -0.14291273 0.38070932
0.0029032845 -0.14293769 0.38077185
0.0049485289 -0.14298484 0.38088986
0.0069949604 -0.14303054 0.38100097
0.0090414919 -0.14305685 0.38105652
0.011085131 -0.14303474 0.38098013
0.013130196 -0.14303492 0.3809593
0.015177868 -0.14305961 0.38100097
0.016815184 -0.1430679 0.38100097
0.018862946 -0.14308466 0.38101485
0.020909907 -0.1430922 0.38100097
0.022956504 -0.14309584 0.38097319
0.025001122 -0.14267963 0.3809593
0.027053304 -0.14271197 0.38100097
0.029104983 -0.14273766 0.3810218
0.031157879 -0.14276469 0.38104263
0.03322177 -0.14283589 0.38117802
0.034870464 -0.14287667 0.38124052
0.036928471 -0.14291134 0.38127175
0.038981427 -0.14292376 0.38124052
0.041035313 -0.14293756 0.38120928
0.043093488 -0.14296436 0.38120928
0.045152996 -0.14299257 0.38120928
0.047213737 -0.14302206 0.38120928
0.048863355 -0.14304663 0.38120928
0.050937891 -0.14310993 0.38129258
0.053017553 -0.14318232 0.38139677
0.055088039 -0.14322484 0.3814176
0.057163302 -0.14327642 0.38145924
0.058819994 -0.14330626 0.38145924
0.060882527 -0.14332144 0.38139677
0.063015848 -0.14306371 0.3812843
0.064996593 -0.1429143 0.38123709
0.067068249 -0.1429463 0.38120928
0.068912931 -0.14287618 0.38124499
0.070940569 -0.14318296 0.38133428
0.072907545 -0.14269063 0.38133428
0.074988283 -0.14273068 0.38131344
0.077066794 -0.1427643 0.38127178
0.079151578 -0.1428072 0.38125095
0.08123403 -0.14284362 0.38120928
0.082908727 -0.14288639 0.38120928
0.085027792 -0.14298035 0.38131344
0.087152682 -0.14307952 0.381428
0.088848755 -0.14314911 0.38149047
0.090966009 -0.14322777 0.38154256
0.093099132 -0.14332746 0.38164669
0.094932951 -0.14279781 0.38156638
0.096993901 -0.14311415 0.38163108
0.098989181 -0.14305024 0.3815842
0.10107903 -0.1430748 0.38147312
0.10307278 -0.14291486 0.38133428
0.10474436 -0.14293261 0.38123426
0.10692855 -0.14272156 0.38116765
0.10905178 -0.14278577 0.38114679
0.11075763 -0.14284459 0.38114679
0.11290567 -0.14293523 0.38118842
0.11507013 -0.14304318 0.38127178
0.11681354 -0.14314091 0.38136551
0.11899021 -0.14325592 0.38145924
0.12122611 -0.14308944 0.38148421
0.12286297 -0.14298494 0.38150087
0.12500387 -0.14304852 0.38144535
0.12704435 -0.14292465 0.38135928
0.12881318 -0.14269231 0.38124055
0.13095748 -0.14275403 0.38116762
0.13309062 -0.14280176 0.38105306
0.13480988 -0.14285223 0.38099054
0.13697942 -0.14293456 0.3809593
0.13918726 -0.14305392 0.3810218
0.14097388 -0.1431672 0.38111556
0.14276449 -0.14328173 0.38120928
0.14496505 -0.14296593 0.38126484
0.14708994 -0.14290556 0.38130927
0.1489186 -0.14271569 0.38127178
0.15094596 -0.14272037 0.38125929
0.15314469 -0.14305541 0.38140926
0.15520743 -0.14308687 0.38145924
0.15703002 -0.14321104 0.38155299
0.15894866 -0.14309078 0.38168421
0.1608461 -0.14290132 0.38172707
0.16311319 -0.14282963 0.38183421
0.16518065 -0.14284977 0.38183421
0.16698691 -0.14294556 0.38183421
0.16879722 -0.14304276 0.38183421
0.17087938 -0.14306766 0.38183421
0.1730731 -0.14336549 0.38183421
0.17515039 -0.14295818 0.38185504
0.17689112 -0.14288941 0.38188419
0.17882109 -0.14274864 0.38192797
0.18092117 -0.14277445 0.38190922
0.18313262 -0.14307252 0.38188419
0.18522957 -0.14309058 0.38183421
0.1870378 -0.14316663 0.38174045
0.18888099 -0.14326759 0.38170922
0.1907158 -0.14293487 0.38170922
0.19292757 -0.14296022 0.38170922
0.19536589 -0.1427782 0.38170922
0.19724651 -0.14289722 0.38170922
0.19913244 -0.14301792 0.38170922
0.20102379 -0.14314029 0.38170922
0.20292066 -0.14326432 0.38170922
0.20477277 -0.14335492 0.38161546
0.20691419 -0.14288458 0.38145924
0.20909271 -0.14293861 0.38138428
0.21123593 -0.14278778 0.38130304
0.21314433 -0.14290863 0.38127178
0.21507613 -0.14304298 0.38127178
0.21701413 -0.14317916 0.38127178
0.21895844 -0.14331719 0.38127178
0.22089155 -0.14313081 0.3811093
0.22279994 -0.14274405 0.38098013
0.2250284 -0.14272785 0.38089681
0.22716525 -0.14295492 0.38083431
0.22943139 -0.1430331 0.38083431
0.23135898 -0.14314719 0.38074055
0.23331188 -0.14327493 0.38067809
0.23528257 -0.14309809 0.38050935
0.2370621 -0.14299653 0.38033438
0.23846467 -0.14305097 0.38016772
-0.036980715 -0.14089741 0.3800844
-0.035076018 -0.14076625 0.38016772
-0.033027392 -0.14073779 0.38014689
-0.031595785 -0.14133804 0.3800844
-0.024645347 -0.14127988 0.3800844
-0.023213975 -0.14105745 0.3800844
-0.021175686 -0.14106992 0.38015386
-0.019139798 -0.14110161 0.38027191
-0.017098615 -0.14068922 0.38033438
-0.014975379 -0.14092495 0.3803094
-0.01301547 -0.14107546 0.38027886
-0.010974449 -0.14106579 0.38027188
-0.0089342175 -0.14106259 0.38027886
-0.006893422 -0.1410477 0.38025105
-0.0048541198 -0.14106506 0.3803066
-0.0028149269 -0.14110419 0.3804177
-0.00126417 -0.14094898 0.38045937
0.00085826678 -0.14071761 0.3805218
0.0028997746 -0.14074217 0.38058436
0.004942507 -0.14078341 0.38068852
0.0069860942 -0.14081821 0.38077182
0.0090288697 -0.14082348 0.38077179
0.011070078 -0.14080675 0.38070932
0.013113116 -0.14081454 0.38070932
0.015159001 -0.14084668 0.38077182
0.016797069 -0.14087786 0.38083431
0.018845096 -0.14091237 0.38089681
0.020889129 -0.14091326 0.38086554
0.022933541 -0.14091553 0.38083431
0.02498435 -0.14095375 0.38089681
0.027033687 -0.14097781 0.38091764
0.029085482 -0.14101076 0.3809593
0.031135261 -0.14102973 0.3809593
0.033194076 -0.14108463 0.38105306
0.034847111 -0.14114797 0.38117802
0.036903735 -0.14118209 0.38120928
0.038952149 -0.14118278 0.38114679
0.041003287 -0.14119245 0.3811051
0.043057527 -0.14121106 0.38108429
0.045110326 -0.14122345 0.38104263
0.047166567 -0.14124474 0.3810218
0.048818558 -0.14128047 0.38105303
0.050990805 -0.1410284 0.38114679
0.052952081 -0.1409605 0.38116765
0.05502896 -0.14102535 0.38125098
0.057095762 -0.14106064 0.38125095
0.059054893 -0.14097899 0.38122493
0.061049681 -0.14123212 0.38119143
0.062790893 -0.14096017 0.38115928
0.064918496 -0.14069484 0.38102183
0.06699796 -0.14074799 0.38105306
0.069094986 -0.14083344 0.38116762
0.071181513 -0.14089322 0.38120928
0.072846316 -0.14092982 0.38120928
0.074929364 -0.14097686 0.38120928
0.077014536 -0.14102525 0.38120928
0.079093494 -0.14105979 0.38116762
0.081178769 -0.14110333 0.38114679
0.082852252 -0.14114541 0.38114679
0.084955804 -0.14121474 0.38118842
0.087140337 -0.14103171 0.38123426
0.088919044 -0.14080237 0.38128069
0.090968899 -0.14111409 0.38134989
0.092967331 -0.14106497 0.38135508
0.095068492 -0.14070298 0.38137594
0.097184621 -0.14077276 0.38139677
0.09886755 -0.1408121 0.38136551
0.10095378 -0.14083467 0.38125095
0.10304458 -0.14086263 0.38114679
0.10496952 -0.14080659 0.38105932
0.10700039 -0.14102724 0.38100928
0.10894033 -0.14098766 0.3809593
0.11107687 -0.14106792 0.38098013
0.11323243 -0.14116903 0.38105306
0.11498033 -0.14127582 0.38117802
0.11701003 -0.14082547 0.38122493
0.11909896 -0.14114715 0.38126284
0.12091228 -0.14092544 0.3812843
0.12295775 -0.14064731 0.38125926
0.12502621 -0.14089099 0.38123426
0.12699142 -0.14086109 0.38117802
0.12893841 -0.14080954 0.38105929
0.13100019 -0.14103964 0.38098428
0.13297427 -0.1410141 0.38092804
0.13495602 -0.14099461 0.38088432
0.13706423 -0.14126697 0.38090932
0.13908759 -0.14128521 0.3809593
0.14081874 -0.14092606 0.3809593
0.14291978 -0.14093259 0.3810218
0.14523558 -0.14073192 0.38108429
0.14702138 -0.14083558 0.38114679
0.14878674 -0.1409173 0.38114679
0.15099843 -0.14102131 0.38114679
0.15324032 -0.14115022 0.38120928
0.15505633 -0.14127119 0.38130304
0.15686348 -0.14096205 0.3814176
0.15859947 -0.14091328 0.38153425
0.16098732 -0.14083055 0.38170922
0.16328543 -0.14099081 0.38183421
0.16508633 -0.1410837 0.38183421
0.1668912 -0.14117795 0.38183421
0.16870013 -0.14127359 0.38183421
0.17103441 -0.14104661 0.38177174
0.173178 -0.14104547 0.38175091
0.17497091 -0.14069866 0.38174048
0.17684117 -0.14083438 0.38183421
0.17867292 -0.14093703 0.38183421
0.18096918 -0.14106748 0.38183424
0.18325716 -0.14118859 0.38180298
0.18507458 -0.14127332 0.38174048
0.18688412 -0.14092581 0.38170922
0.18872005 -0.14102097 0.38166752
0.19081044 -0.14060207 0.38163421
0.19307481 -0.14092597 0.38165921
0.19521669 -0.1409647 0.38164669
0.19709535 -0.14108181 0.38164672
0.1989793 -0.14120051 0.38164672
0.20086867 -0.14132088 0.38164672
0.20300488 -0.14098372 0.3815634
0.20499854 -0.14107242 0.38144138
0.20725814 -0.14071682 0.38127178
0.20913589 -0.14082053 0.38120928
0.21103616 -0.1409376 0.38117805
0.21292466 -0.14104491 0.38111553
0.21480106 -0.14114225 0.3810218
0.21673594 -0.14127614 0.3810218
0.21893124 -0.14095932 0.3809593
0.22098185 -0.14092626 0.38087597
0.22332284 -0.1407481 0.38074058
0.22526592 -0.14087753 0.38070932
0.22725275 -0.14103207 0.38074055
0.22922784 -0.14117695 0.38074055
0.23119101 -0.14131217 0.38070932
0.23306619 -0.14095913 0.38058433
0.234869 -0.14087281 0.38045937
0.23683056 -0.14068888 0.38027191
0.23825708 -0.14075753 0.38014689
-0.034646392 -0.13945755 0.3800844
-0.033419006 -0.13944525 0.3800844
-0.024424877 -0.13894539 0.3800844
-0.023200087 -0.13893694 0.3800844
-0.021160394 -0.1389315 0.38010526
-0.019125298 -0.13895762 0.38020939
-0.017084921 -0.13894702 0.38020942
-0.015043775 -0.13892621 0.38017815
-0.013003334 -0.1389067 0.38014689
-0.010965359 -0.13891113 0.38017815
-0.0089274282 -0.13891686 0.38020942
-0.0068887854 -0.13891238 0.38020939
-0.0048503322 -0.13890918 0.38020942
-0.0028124554 -0.13893005 0.38027188
-0.0011818265 -0.13896355 0.38036561
0.00085744722 -0.13899045 0.38043854
0.0028970859 -0.13899946 0.38045937
0.0049377247 -0.13902505 0.3805218
0.0069801426 -0.13907462 0.38064682
0.0090212524 -0.13907982 0.38064682
0.011060795 -0.13906325 0.38058433
0.013102927 -0.13907856 0.38060519
0.015147658 -0.13911404 0.38067806
0.016783111 -0.13913341 0.38070932
0.018826371 -0.13914454 0.38070932
0.020870144 -0.13915683 0.38070932
0.022914557 -0.13917045 0.38070932
0.024959587 -0.13918523 0.38070932
0.027009817 -0.13922428 0.38077179
0.029056678 -0.13924158 0.38077182
0.03122787 -0.13911524 0.38087004
0.033163473 -0.13891621 0.3809385
0.034811188 -0.1389634 0.38102183
0.03686469 -0.1389931 0.3810426
0.038913049 -0.13900119 0.38100097
0.040962163 -0.13901055 0.3809593
0.043016631 -0.13903639 0.3809593
0.045067508 -0.13904849 0.38091764
0.0471243 -0.1390769 0.38091764
0.048946265 -0.13898376 0.38092357
0.050833542 -0.13900454 0.3809593
0.052894536 -0.13876411 0.38099056
0.054961573 -0.13880883 0.38102183
0.057025805 -0.1388434 0.3810218
0.059091825 -0.13887936 0.38102177
0.061149426 -0.13889371 0.3809593
0.06280461 -0.13892448 0.3809593
0.064875312 -0.13896416 0.3809593
0.066947825 -0.13900512 0.3809593
0.069033876 -0.13907038 0.38102183
0.071122333 -0.13913688 0.38108429
0.072797641 -0.13919577 0.38114679
0.074866951 -0.13921915 0.38108429
0.076950297 -0.13926676 0.38108429
0.079136245 -0.13910936 0.38101289
0.081096269 -0.13890809 0.381001
0.082942881 -0.13882932 0.38099501
0.08497189 -0.13911948 0.38102177
0.086879328 -0.13890408 0.38105929
0.089064695 -0.13872132 0.38110515
0.091174647 -0.13879338 0.38114679
0.092857003 -0.13884003 0.38114679
0.094962627 -0.1388997 0.38114679
0.097071029 -0.13896076 0.38114679
0.099007756 -0.13892782 0.3811343
0.10102264 -0.13913387 0.38105932
0.10294056 -0.13907148 0.3809593
0.10504288 -0.13911568 0.38089681
0.10713002 -0.1391384 0.38077182
0.10882987 -0.13919429 0.38077182
0.11110215 -0.13912097 0.38087004
0.11312424 -0.13896823 0.38093844
0.11485773 -0.13905795 0.38102183
0.1169883 -0.13870914 0.38104263
0.11914407 -0.13880113 0.38108429
0.12086143 -0.13886383 0.38108429
0.12299169 -0.13892108 0.38102183
0.12514558 -0.13900261 0.3810218
0.12685099 -0.13904622 0.3809593
0.12899129 -0.13910818 0.38089681
0.13112409 -0.13916022 0.38080308
0.13284825 -0.13921918 0.38077182
0.13513443 -0.13912465 0.38076288
0.13718742 -0.1389733 0.38079265
0.13894771 -0.13906251 0.38083431
0.14094512 -0.13863605 0.38085932
0.14309287 -0.13893829 0.3809593
0.14510876 -0.13894072 0.3809593
0.14686865 -0.13901988 0.3809593
0.14907341 -0.13912062 0.3809593
0.15130799 -0.13924605 0.3810218
0.15309273 -0.13892269 0.3811051
0.1549108 -0.13904506 0.38120928
0.15670763 -0.13872668 0.38130304
0.15902053 -0.13890733 0.38150087
0.16134551 -0.13909379 0.38170922
0.16315395 -0.13919525 0.38174045
0.16499349 -0.13932076 0.38183421
0.1667465 -0.13895039 0.38177171
0.16898447 -0.13905001 0.38172311
0.17121935 -0.13872287 0.38170922
0.17303599 -0.13881959 0.38170922
0.17485693 -0.13891768 0.38170922
0.17668222 -0.13901722 0.38170922
0.17899956 -0.13916656 0.38177171
0.18127972 -0.13928375 0.38174045
0.18307979 -0.13893332 0.38170922
0.18490501 -0.1390239 0.38166752
0.18693516 -0.1385653 0.38153425
0.1891472 -0.1388551 0.38148421
0.19126874 -0.13888392 0.38145924
0.19313455 -0.13899589 0.38145924
0.19500549 -0.13910945 0.38145924
0.19688162 -0.13922457 0.38145924
0.19876303 -0.13934129 0.38145924
0.20079538 -0.13888438 0.38142353
0.20294261 -0.13898991 0.38139677
0.20521179 -0.13878611 0.38124052
0.2070822 -0.13888645 0.38117802
0.20894068 -0.13897699 0.38108429
0.21082133 -0.1390807 0.3810218
0.21270731 -0.13918597 0.3809593
0.21487474 -0.13921811 0.38088429
0.21722266 -0.13912572 0.38081646
0.21928425 -0.13866585 0.38074055
0.22121269 -0.13878946 0.38070932
0.22316562 -0.13892631 0.38070932
0.22512512 -0.13906504 0.38070932
0.22709134 -0.13920563 0.38070932
0.2290644 -0.13934813 0.38070932
0.23093235 -0.13899289 0.38058436
0.2328051 -0.13863823 0.38045937
0.23473908 -0.13875112 0.38036561
0.23664054 -0.13884303 0.38020939
0.23806524 -0.13891032 0.3800844
-0.023191892 -0.13766658 0.3800844
-0.020946667 -0.13744098 0.3800844
-0.019110084 -0.13721898 0.3800844
-0.017072339 -0.13721612 0.38010526
-0.015034797 -0.13762212 0.3800844
-0.012996708 -0.13761413 0.3800844
-0.010957688 -0.13718446 0.3800844
-0.0089209154 -0.13718645 0.38010526
-0.0068834755 -0.13717449 0.3800844
-0.0048471563 -0.13718645 0.38012609
-0.0028109017 -0.13721448 0.38020939
-0.001181128 -0.13722509 0.38024062
0.00085636065 -0.13723665 0.38027191
0.002894762 -0.13727185 0.38036561
0.004933977 -0.13730083 0.38043854
0.0069726207 -0.13689674 0.38048017
0.00901209 -0.13690938 0.380501
0.011050235 -0.13690053 0.38045934
0.013090221 -0.13691306 0.38047323
0.015133709 -0.13695419 0.3805635
0.017074252 -0.13687652 0.38061559
0.019045204 -0.13712204 0.38063788
0.020848192 -0.13697752 0.38054264
0.022890478 -0.13699086 0.38054264
0.024934767 -0.1370129 0.3805635
0.026979996 -0.13703625 0.38058433
0.029027829 -0.13706814 0.38062599
0.030974491 -0.13699816 0.38067809
0.033126041 -0.13672298 0.38074055
0.035020132 -0.13669978 0.38085932
0.036994152 -0.13690826 0.38090929
0.038869068 -0.13680629 0.38080308
0.040917009 -0.13681926 0.38077185
0.042969204 -0.13684456 0.38077182
0.045022722 -0.13687122 0.38077185
0.047073614 -0.13688779 0.38074055
0.049130987 -0.13692074 0.38075098
0.051195376 -0.13696982 0.38080308
0.052855611 -0.13702883 0.38089681
0.05492267 -0.13707656 0.38093844
0.056979131 -0.1370956 0.38089681
0.059043419 -0.13713098 0.38089681
0.061109319 -0.13716757 0.38089681
0.063003823 -0.1371038 0.38085932
0.064989179 -0.13730259 0.38083431
0.066914745 -0.13729964 0.3809593
0.068979859 -0.13691539 0.3809593
0.071058966 -0.13696577 0.38098013
0.073137805 -0.13701253 0.38098708
0.075211987 -0.13704799 0.3809593
0.076873027 -0.13707797 0.38093844
0.078841299 -0.13700193 0.38089681
0.081010342 -0.13671085 0.38083431
0.083097957 -0.13676153 0.38083431
0.085201912 -0.13683601 0.38089681
0.086890355 -0.13690104 0.3809593
0.08898592 -0.13695566 0.3809593
0.091084033 -0.13701163 0.3809593
0.092764616 -0.13705751 0.3809593
0.094868034 -0.13711618 0.3809593
0.096974202 -0.13717625 0.3809593
0.099067338 -0.13721545 0.38089681
0.10115436 -0.13724472 0.38080305
0.10282899 -0.13727367 0.38074055
0.10492028 -0.13730572 0.38064682
0.10700884 -0.13692124 0.38058436
0.10901726 -0.1368733 0.38056871
0.110998 -0.13708036 0.38066769
0.11299279 -0.13674292 0.38074055
0.11472727 -0.13683468 0.38083431
0.11690231 -0.13695358 0.3809593
0.11904333 -0.13702917 0.3809593
0.12075906 -0.13709085 0.3809593
0.12289396 -0.13715453 0.38091764
0.12503913 -0.13722724 0.38089681
0.12698181 -0.1371755 0.3807843
0.12910083 -0.13701552 0.3807272
0.13100557 -0.13696057 0.38070932
0.13273877 -0.13702948 0.38070932
0.13479635 -0.13700445 0.38070935
0.13706639 -0.13677298 0.38070932
0.13880967 -0.13684553 0.38070932
0.14102413 -0.13696794 0.38079265
0.14322841 -0.13707699 0.38083431
0.1449952 -0.13716494 0.38086557
0.14676546 -0.13725409 0.38089681
0.14906363 -0.13703145 0.38089681
0.15118074 -0.13704048 0.3809593
0.152943 -0.13669699 0.38099054
0.15478016 -0.13683572 0.38114679
0.15705493 -0.13698588 0.38127181
0.15936252 -0.13716035 0.38145924
0.16120414 -0.13729262 0.38158423
0.16301064 -0.13697241 0.38166752
0.16480772 -0.13706189 0.38166752
0.16702779 -0.13672845 0.38164672
0.16927138 -0.13683246 0.38161549
0.17106807 -0.13691495 0.38158423
0.17288275 -0.13701007 0.38158423
0.17471604 -0.13711782 0.38161546
0.17703007 -0.13726665 0.38168836
0.17930184 -0.1369569 0.38170922
0.1811365 -0.13705792 0.38170922
0.18290496 -0.13668394 0.38161546
0.18471779 -0.136765 0.38155299
0.18698229 -0.13686277 0.38145924
0.18925264 -0.13696271 0.38136554
0.19106451 -0.13703768 0.38127178
0.19292787 -0.13714775 0.38127178
0.19479632 -0.13725939 0.38127178
0.19694357 -0.13693872 0.38125095
0.19900461 -0.13707997 0.38129854
0.20131852 -0.13676949 0.38127178
0.20317686 -0.13686478 0.38120928
0.20504016 -0.13696183 0.38114679
0.20687452 -0.13703792 0.3810218
0.20874764 -0.13713804 0.3809593
0.2108864 -0.13715556 0.38085932
0.21324176 -0.13720934 0.38073015
0.21527182 -0.13702638 0.38066766
0.21715942 -0.13669883 0.38064682
0.21909732 -0.13682982 0.38064682
0.22102341 -0.13695133 0.38061559
0.22295575 -0.1370746 0.38058433
0.22491276 -0.13721099 0.38058433
0.22695398 -0.13708495 0.38058433
0.22881187 -0.13703682 0.38058433
0.23067741 -0.1366801 0.38045937
0.23262194 -0.13680033 0.38039684
0.23481861 -0.13682653 0.38025942
0.23716848 -0.13714853 0.38015941
-0.018695824 -0.1359487 0.3800844
-0.017880604 -0.13594453 0.3800844
-0.0089174956 -0.1359113 0.3800844
-0.0068812226 -0.13590692 0.3800844
-0.00484514 -0.13590385 0.3800844
-0.002808905 -0.13547979 0.3800844
-0.001180566 -0.13550146 0.38014689
0.0008552745 -0.13507733 0.38013998
0.0028912059 -0.13508858 0.38016772
0.0049284957 -0.13512574 0.38026497
0.0069649843 -0.13472076 0.38030314
0.0090040211 -0.13475901 0.38039687
0.01104162 -0.13476509 0.38039684
0.013081041 -0.13478716 0.38043854
0.015120345 -0.134803 0.38045937
0.017162258 -0.13483493 0.38052186
0.019199001 -0.13482359 0.38045937
0.020831052 -0.13483314 0.38045937
0.022871682 -0.13484623 0.38045934
0.024912924 -0.13486041 0.38045937
0.026954925 -0.13487591 0.38045934
0.028997645 -0.13489249 0.38045937
0.031044697 -0.1349252 0.38050103
0.033099301 -0.13498482 0.38061556
0.035154209 -0.13503836 0.38070932
0.037201937 -0.13505983 0.38070932
0.038840912 -0.13507791 0.38070932
0.040883962 -0.13507955 0.38064682
0.042934485 -0.13510445 0.38064682
0.044986326 -0.13513066 0.38064682
0.047035545 -0.13514689 0.38061556
0.049091239 -0.13517933 0.38062599
0.051153928 -0.13522767 0.38067806
0.052808505 -0.13527472 0.38074055
0.054862581 -0.13488664 0.38075101
0.056923017 -0.13491993 0.38075098
0.058989566 -0.13496442 0.38077879
0.061059088 -0.13501254 0.38081348
0.063123949 -0.13504733 0.38080657
0.065189347 -0.13508086 0.38079265
0.066852227 -0.13512726 0.38083431
0.068923041 -0.13475762 0.38087597
0.071011931 -0.13482901 0.3809593
0.073079996 -0.13485767 0.38091764
0.075147629 -0.13488379 0.38086554
0.076805145 -0.13490939 0.38083431
0.078882471 -0.13494913 0.38081348
0.080944166 -0.13496056 0.38070932
0.083034575 -0.1350178 0.38073015
0.08513914 -0.13509476 0.38080308
0.086819112 -0.13514775 0.38083431
0.088927455 -0.13522375 0.38089681
0.091001637 -0.13524547 0.38080308
0.093206026 -0.13510798 0.38076288
0.095262416 -0.13508153 0.38073432
0.096845098 -0.13493931 0.38068846
0.098920837 -0.13495778 0.38057041
0.10099447 -0.13497271 0.38043854
0.10308129 -0.13500391 0.38034827
0.10517979 -0.13504879 0.38029274
0.10685389 -0.13466573 0.38027188
0.10899129 -0.13475506 0.38033438
0.11115986 -0.13487898 0.38049063
0.11288942 -0.13496831 0.38058433
0.11505833 -0.13508415 0.38070932
0.11721278 -0.13517942 0.38077182
0.11893392 -0.13525009 0.38080308
0.12115769 -0.1349905 0.38075623
0.12319118 -0.13495448 0.38075098
0.12489744 -0.1350026 0.38070932
0.12703243 -0.13506323 0.38065374
0.1291389 -0.13467771 0.38055307
0.13085647 -0.13473308 0.38052183
0.13303538 -0.13483237 0.3805635
0.1352226 -0.13493702 0.38061556
0.1369725 -0.13501838 0.38064682
0.13872579 -0.13510081 0.38067806
0.14091925 -0.13520274 0.38070932
0.14318237 -0.13503882 0.38070932
0.14484815 -0.1349442 0.38073015
0.14694533 -0.13494106 0.38077182
0.14901331 -0.1349881 0.38083431
0.1510431 -0.13482893 0.38086557
0.15284902 -0.1349422 0.3809593
0.15492418 -0.13498409 0.38105932
0.15712698 -0.13531128 0.38120928
0.159301 -0.1351075 0.38133428
0.16103388 -0.13505073 0.3814384
0.16281174 -0.13470683 0.38145924
0.16507368 -0.13483137 0.38150087
0.16730541 -0.13492826 0.38145924
0.16910985 -0.13501911 0.38145924
0.17091842 -0.13511127 0.38145924
0.17273116 -0.13520478 0.38145924
0.17511345 -0.1350107 0.38149047
0.17729618 -0.13503361 0.38154253
0.17911899 -0.13470502 0.38158423
0.18095127 -0.13480394 0.38158423
0.18277313 -0.13489324 0.38155299
0.18502022 -0.13498016 0.3814384
0.18726262 -0.13506174 0.38130304
0.1890837 -0.1351449 0.38124052
0.19092479 -0.13524055 0.38120928
0.19299901 -0.13506368 0.3811093
0.19502881 -0.13499801 0.38108426
0.197116 -0.13496909 0.38115928
0.19925258 -0.13482744 0.38114679
0.20113656 -0.13494168 0.38114679
0.2029926 -0.13503535 0.38108429
0.20483688 -0.13511947 0.38099056
0.20670277 -0.1352163 0.38092807
0.20899075 -0.13502131 0.38079265
0.21110842 -0.13509783 0.38067362
0.21303639 -0.13487266 0.38053435
0.21499456 -0.13470894 0.38045937
0.21692351 -0.13483594 0.38045937
0.21889463 -0.13498695 0.38052186
0.22080025 -0.13509521 0.38045937
0.22274823 -0.13522752 0.38045937
0.22478047 -0.13509804 0.38045937
0.22653294 -0.13486819 0.38048434
0.22856292 -0.13473208 0.38045937
0.23100637 -0.13489078 0.38041767
0.23337659 -0.13500413 0.38024062
0.23532836 -0.13512501 0.38017815
0.23676711 -0.13520014 0.3800844
0.0051271766 -0.13317551 0.38011566
0.006959239 -0.13299015 0.38017815
0.0089951875 -0.13300593 0.38020942
0.011032656 -0.13303386 0.38027188
0.013071227 -0.13306294 0.38033438
0.015111914 -0.13310407 0.38042814
0.017151276 -0.13312453 0.38045934
0.019189885 -0.13313521 0.38045937
0.02081944 -0.13313371 0.38042814
0.022853352 -0.13311377 0.38033438
0.024892971 -0.1331277 0.38033438
0.026933348 -0.13314293 0.38033438
0.028976854 -0.13317022 0.38036561
0.031023256 -0.13320605 0.3804177
0.033072826 -0.13325028 0.3804906
0.035237905 -0.13311085 0.38054863
0.03716379 -0.13288741 0.38054267
0.038798928 -0.13289784 0.38052186
0.040841244 -0.13290408 0.38047323
0.042888075 -0.13292356 0.38045934
0.044936009 -0.13294441 0.38044545
0.046983346 -0.13296157 0.3804177
0.049035378 -0.13298969 0.38041767
0.0510999 -0.13304807 0.38050103
0.053060357 -0.13299493 0.38056871
0.055226747 -0.13273787 0.38064682
0.05687381 -0.1327641 0.38064682
0.058934193 -0.13279803 0.38064682
0.061006181 -0.13285488 0.38070932
0.063070402 -0.13289134 0.38070932
0.065136336 -0.132929 0.38070932
0.066790506 -0.13296005 0.38070932
0.068871364 -0.13302197 0.38077179
0.0709548 -0.13308498 0.38083431
0.073029168 -0.13312764 0.38083431
0.075099356 -0.13316061 0.38080308
0.077000879 -0.1331019 0.3807593
0.078991398 -0.13329895 0.38070932
0.080905214 -0.13325775 0.38070932
0.082980067 -0.13288137 0.38070935
0.085066877 -0.13293146 0.38070932
0.087052822 -0.13287935 0.38072497
0.089067884 -0.1331467 0.38069147
0.090909153 -0.13305727 0.38064682
0.092879139 -0.132976 0.38056868
0.094969973 -0.1329309 0.38045937
0.097111113 -0.13268434 0.38031355
0.099179156 -0.1326963 0.38017812
0.10086741 -0.1331604 0.38014689
0.10253707 -0.13318807 0.3800844
0.10676165 -0.13331613 0.3800844
0.10888963 -0.13298409 0.38016775
0.11104085 -0.13308799 0.38027191
0.11278697 -0.13319777 0.38042814
0.11506808 -0.1331307 0.38054866
0.11708202 -0.1329658 0.38058433
0.11879779 -0.1330314 0.38060513
0.12082307 -0.13287358 0.38065577
0.12305996 -0.13274434 0.38058433
0.12475736 -0.13278428 0.38052183
0.12689427 -0.13284826 0.3804802
0.12904182 -0.13292105 0.38045937
0.13074714 -0.13296457 0.38039684
0.13292398 -0.13306226 0.38043854
0.13509798 -0.13315424 0.38045937
0.13683486 -0.13322331 0.38045937
0.13912877 -0.13301361 0.3805218
0.14121871 -0.13301226 0.38058436
0.14290927 -0.13294296 0.38068432
0.14474656 -0.13276908 0.38070932
0.1469405 -0.13286263 0.38070932
0.14916386 -0.13297968 0.38077182
0.15095183 -0.13307911 0.38083431
0.15274398 -0.13317969 0.38089681
0.15510894 -0.13312735 0.38097715
0.15723458 -0.13301207 0.38108432
0.15895918 -0.13295099 0.38118428
0.16084389 -0.13279667 0.38124055
0.16291535 -0.13282226 0.3812843
0.16509764 -0.13311818 0.38133428
0.16716118 -0.13313183 0.38133428
0.16896376 -0.13322115 0.38133428
0.17077041 -0.13331175 0.38133428
0.17287835 -0.13286188 0.38130304
0.17503414 -0.13294116 0.38140926
0.17713712 -0.13280356 0.38145924
0.17896296 -0.13289943 0.38145924
0.18079326 -0.13299665 0.38145924
0.18288684 -0.13301331 0.38143426
0.18505695 -0.13327529 0.38133428
0.18711296 -0.13326061 0.38120928
0.1889011 -0.13332047 0.38108429
0.1909761 -0.13295729 0.3809593
0.19295444 -0.13304742 0.3808879
0.19524714 -0.13273156 0.38086554
0.19713366 -0.1328516 0.38089681
0.19904211 -0.13298407 0.3809593
0.20092361 -0.13309634 0.3809593
0.20277722 -0.1331884 0.38089681
0.20491424 -0.13321029 0.38083431
0.20721059 -0.13309577 0.38074502
0.20915654 -0.13288561 0.38065934
0.21105053 -0.13268508 0.3804906
0.21294832 -0.13279569 0.38045937
0.21483415 -0.13289714 0.38039684
0.21676108 -0.13302203 0.38039684
0.21873015 -0.13317041 0.38045937
0.22092767 -0.13304022 0.38043436
0.2228841 -0.13298698 0.3804177
0.22478649 -0.13293351 0.38040933
0.22715528 -0.1329308 0.38045937
0.22939286 -0.13298522 0.38042814
0.23129222 -0.13307853 0.38030314
0.23321649 -0.13318451 0.38020939
0.23514688 -0.13329238 0.38011566
0.23665863 -0.13384065 0.3800844
0.0069549331 -0.13169442 0.3800844
0.0089889364 -0.13129312 0.38012609
0.011021885 -0.1308786 0.38012609
0.013058219 -0.13090478 0.38018167
0.015096842 -0.13094406 0.38027188
0.017136283 -0.13097979 0.38034827
0.01917134 -0.13097827 0.38031355
0.020798801 -0.13097309 0.38027188
0.022833385 -0.13096888 0.3802233
0.024870364 -0.13097775 0.38020942
0.026910897 -0.13100228 0.38023722
0.028951325 -0.13102306 0.38025108
0.030991681 -0.13104032 0.38025105
0.033040136 -0.13108735 0.38033438
0.034988176 -0.13103279 0.38042808
0.037134212 -0.13074893 0.38045937
0.039009556 -0.13066749 0.38040933
0.040975414 -0.13085809 0.38040939
0.042849213 -0.13076994 0.38033438
0.044894438 -0.13078792 0.38031355
0.046934262 -0.1307891 0.38024062
0.048985545 -0.13082021 0.38025108
0.051052142 -0.13088828 0.38036561
0.053115752 -0.13094328 0.38043854
0.055173952 -0.1309815 0.38045937
0.05681942 -0.13100728 0.38045937
0.058887463 -0.13106224 0.3805218
0.060947768 -0.13109675 0.38052183
0.063009955 -0.13113259 0.3805218
0.065073878 -0.13116959 0.38052183
0.066983923 -0.13114163 0.38058436
0.069093458 -0.13115394 0.38066766
0.070882283 -0.13090676 0.38066766
0.072962441 -0.13096274 0.38070935
0.075036846 -0.13100569 0.38070932
0.077113628 -0.13105001 0.38070935
0.079192556 -0.13109554 0.38070932
0.080857463 -0.13113295 0.38070932
0.082922004 -0.13074185 0.38066766
0.085002616 -0.13078372 0.38064682
0.08709047 -0.13083418 0.38064682
0.089151509 -0.13084291 0.38052186
0.090802833 -0.13085298 0.38042814
0.092879198 -0.13088214 0.38035521
0.094947122 -0.13089815 0.38024062
0.096853301 -0.13099901 0.3801344
0.098698393 -0.13137332 0.3800844
0.10967313 -0.13169931 0.3800844
0.11094111 -0.13132317 0.38011563
0.11308679 -0.1310057 0.38023719
0.11515985 -0.13094293 0.38035935
0.11695275 -0.13075797 0.38039687
0.11910031 -0.13084389 0.38043854
0.12124522 -0.13092408 0.38045937
0.12295893 -0.1309837 0.38045937
0.12509109 -0.13104537 0.3804177
0.12722325 -0.13110489 0.38036561
0.12891404 -0.13113573 0.38027188
0.13106351 -0.13120896 0.38025105
0.13322054 -0.13128729 0.38024062
0.13503566 -0.13110575 0.38025936
0.13685943 -0.13088334 0.380263
0.13888626 -0.13098021 0.38037601
0.14108306 -0.13080876 0.38045937
0.1428642 -0.13091218 0.3805531
0.14492287 -0.13095406 0.38068432
0.14704487 -0.13122411 0.38070932
0.14906299 -0.13122383 0.38070932
0.15095101 -0.13108695 0.38083431
0.15294743 -0.13089304 0.38083431
0.15502267 -0.13112737 0.38093844
0.1570814 -0.13079306 0.3809593
0.15889883 -0.13090627 0.38105306
0.16072081 -0.13102069 0.38114679
0.16297282 -0.13113949 0.38118848
0.16522181 -0.13125294 0.38120928
0.16708443 -0.13107331 0.38118428
0.16877878 -0.1309761 0.38116762
0.17092103 -0.13097572 0.38117805
0.17329323 -0.13077641 0.38120928
0.17515093 -0.13090017 0.38130304
0.1769993 -0.13101453 0.38136554
0.17885263 -0.13113023 0.381428
0.1809306 -0.13113733 0.38138428
0.18318675 -0.13115601 0.38125095
0.18510181 -0.13092673 0.38112593
0.1868837 -0.13098364 0.381001
0.18885706 -0.1309249 0.38087001
0.19091314 -0.13098027 0.38075098
0.19318065 -0.13079144 0.38067806
0.1950275 -0.13088657 0.38064682
0.19692764 -0.13101529 0.38070932
0.19881736 -0.13113488 0.38074055
0.20071265 -0.13125601 0.38077182
0.20298861 -0.13091853 0.38067365
0.2051578 -0.13117515 0.38067362
0.20718929 -0.13071099 0.38061559
0.20905748 -0.13080585 0.3805531
0.21091355 -0.13089147 0.38045937
0.21277452 -0.1309787 0.38036561
0.2146582 -0.13107827 0.38030314
0.21684127 -0.13111517 0.38025936
0.21914728 -0.13108593 0.38025942
0.22103643 -0.13102834 0.38025108
0.22324966 -0.13071504 0.38020939
0.22523881 -0.13086593 0.38027188
0.22723523 -0.13101849 0.38033438
0.22920142 -0.13115138 0.38033438
0.23113644 -0.13126449 0.38027191
0.23312581 -0.13109866 0.38015938
0.23472136 -0.1312318 0.3800844
0.013862179 -0.12919329 0.3800844
0.01508496 -0.12921953 0.38014689
0.017117364 -0.12880893 0.38014689
0.019152006 -0.12881917 0.38014692
0.020778382 -0.12881756 0.38011563
0.022814646 -0.12923922 0.3800844
0.024848044 -0.12883265 0.3800844
0.026884764 -0.12884726 0.3800844
0.028922196 -0.1288629 0.3800844
0.030963942 -0.12889393 0.38012609
0.033010483 -0.12894008 0.38020939
0.035059001 -0.12898754 0.38029274
0.037105188 -0.12902187 0.38033438
0.039144371 -0.12902924 0.38029274
0.041183073 -0.1290341 0.38024062
0.042815696 -0.12904236 0.38020939
0.044861812 -0.12906706 0.38020942
0.046901412 -0.12907173 0.38014689
0.048949819 -0.12909877 0.38014689
0.051007904 -0.12914808 0.38020939
0.053068239 -0.12919883 0.38027191
0.055121612 -0.12922937 0.38027191
0.056765489 -0.1292547 0.38027188
0.058931779 -0.12899947 0.38034999
0.060882971 -0.1289209 0.38033438
0.062942922 -0.12895599 0.38033438
0.06500458 -0.1289922 0.38033438
0.067080528 -0.12905321 0.38040382
0.069075137 -0.12894851 0.38048434
0.070814483 -0.12874088 0.38052186
0.072884597 -0.12878175 0.3805218
0.074956715 -0.12882379 0.38052183
0.077048101 -0.12889533 0.38060519
0.079133779 -0.12895405 0.38064682
0.080784097 -0.12896945 0.38058433
0.082856387 -0.12900236 0.38054267
0.084935278 -0.12904352 0.38052183
0.087007083 -0.12907183 0.38045934
0.089080676 -0.12910151 0.38039687
0.091136418 -0.12910418 0.38025108
0.09320347 -0.1291223 0.38014689
0.094874613 -0.12956932 0.3800844
0.11354414 -0.12897845 0.3800844
0.11511708 -0.12890728 0.38014692
0.11683895 -0.12898359 0.38020939
0.11899072 -0.12907524 0.38027188
0.12112689 -0.12914707 0.38027191
0.12283875 -0.12920564 0.38027188
0.12508966 -0.12909199 0.38024512
0.12709363 -0.12890671 0.38020942
0.128793 -0.12894742 0.38014689
0.13082404 -0.1292576 0.38012013
0.13310017 -0.12951426 0.3800844
0.13468039 -0.12943113 0.3800844
0.13720003 -0.12903754 0.38011566
0.13917983 -0.12893054 0.38020939
0.14096682 -0.12904184 0.38033438
0.14276966 -0.12916474 0.38049063
0.14512905 -0.12912399 0.38063788
0.14720438 -0.12897976 0.38068846
0.14896946 -0.12906031 0.38070932
0.15064411 -0.12896658 0.38073429
0.15295802 -0.12883212 0.38081348
0.15517731 -0.12893543 0.38083431
0.15697597 -0.12903504 0.38089681
0.15877888 -0.12913573 0.3809593
0.16102336 -0.12925111 0.38100097
0.16332565 -0.12909165 0.38098431
0.1650074 -0.12898858 0.3809593
0.16670297 -0.12889458 0.3809593
0.16884342 -0.12864861 0.3809593
0.17106028 -0.12896141 0.38105932
0.1731606 -0.12899503 0.38111556
0.17501643 -0.12911671 0.38120928
0.17684855 -0.12921862 0.38124055
0.17896615 -0.1288992 0.38127181
0.18104382 -0.12910062 0.3812249
0.18305691 -0.12888467 0.3811093
0.18489815 -0.12867177 0.3809593
0.18694901 -0.12865424 0.38083431
0.18911222 -0.12890708 0.38070932
0.19120437 -0.12891419 0.38064682
0.19302894 -0.1289956 0.38058433
0.19485784 -0.12907848 0.38052183
0.1967236 -0.12918389 0.38052186
0.19886616 -0.12904613 0.38053435
0.2010462 -0.12910706 0.38053745
0.20320652 -0.12865782 0.38045937
0.20509535 -0.12876901 0.38045937
0.20698978 -0.12888177 0.38045937
0.20888995 -0.12899606 0.38045937
0.21076117 -0.12909071 0.38039684
0.21286325 -0.12908179 0.38023439
0.21516295 -0.12939458 0.38020939
0.21730463 -0.12897818 0.38014689
0.21910509 -0.12890324 0.3801094
0.22110575 -0.12875684 0.3800844
0.22308564 -0.12890346 0.38014692
0.2250727 -0.12905169 0.38020939
0.22704843 -0.12919119 0.38024062
0.22914746 -0.12909086 0.38033438
0.23096885 -0.12901548 0.38027188
0.23276491 -0.12892418 0.38015941
0.2342844 -0.12873653 0.3800844
0.031765357 -0.12762663 0.3800844
0.03298492 -0.12721772 0.3800844
0.035150554 -0.12709962 0.38020942
0.037072387 -0.12687849 0.38020942
0.039111197 -0.12689029 0.38018164
0.041150037 -0.12690079 0.38014689
0.042703599 -0.1270822 0.3801344
0.044667326 -0.12743303 0.3801094
0.046468612 -0.12778305 0.3800844
0.049744543 -0.12782589 0.3800844
0.050973967 -0.12784275 0.3800844
0.053024154 -0.12746514 0.38012609
0.055078764 -0.12750217 0.38014692
0.057132199 -0.12753345 0.38014689
0.059303451 -0.12684537 0.3800844
0.060818873 -0.12675041 0.38014692
0.062876604 -0.12678474 0.38014689
0.064941406 -0.12683058 0.38017815
0.067012198 -0.12688467 0.38023022
0.069089144 -0.1269469 0.38030314
0.071003519 -0.12692562 0.38038439
0.073006928 -0.12715809 0.38045937
0.074910529 -0.12711172 0.38045937
0.076983646 -0.12715435 0.38045934
0.079058915 -0.12719819 0.38045937
0.081136681 -0.12724334 0.38045934
0.083127856 -0.12703405 0.38045937
0.084859043 -0.12688385 0.38039687
0.086925618 -0.1269069 0.38032046
0.08898095 -0.1269125 0.38018855
0.090777643 -0.1272112 0.38010523
0.11548249 -0.12761985 0.3800844
0.11689179 -0.1273811 0.3800844
0.11900829 -0.1271428 0.38013798
0.12102193 -0.12697534 0.38016772
0.12290753 -0.12691286 0.38015583
0.1248754 -0.12710762 0.38017368
0.126976 -0.12672454 0.3800844
0.12827989 -0.12719752 0.3800844
0.13921674 -0.12731779 0.3800844
0.14084011 -0.12726812 0.38017812
0.14294697 -0.12686449 0.38033438
0.14500831 -0.12710063 0.38048017
0.14706177 -0.12677675 0.3805531
0.14886557 -0.12689036 0.38067809
0.1510772 -0.1269923 0.38070932
0.15328163 -0.12708549 0.38070932
0.15506203 -0.12717187 0.38074058
0.1568462 -0.12725934 0.38077182
0.15904975 -0.12692697 0.38078076
0.16110447 -0.12715366 0.38081646
0.16294141 -0.12691388 0.38073432
0.16479518 -0.12673077 0.38070932
0.16686238 -0.12674752 0.38073429
0.16907087 -0.127056 0.38083431
0.17118043 -0.12709886 0.38092804
0.17301527 -0.12720686 0.38099054
0.1748549 -0.12731612 0.38105303
0.17685919 -0.12687036 0.38110214
0.17896934 -0.12697485 0.38116762
0.18118185 -0.12676015 0.38105306
0.18296733 -0.12682237 0.3809593
0.1847564 -0.12688591 0.38086557
0.18699956 -0.12696804 0.38075098
0.18928474 -0.12707643 0.38070932
0.19110337 -0.12715501 0.38064682
0.19291064 -0.12722446 0.38055307
0.19479975 -0.12703653 0.38045937
0.1969038 -0.12686805 0.38045934
0.19905309 -0.12709835 0.38045934
0.20121519 -0.12678134 0.38045937
0.20309702 -0.12688915 0.38045937
0.20498435 -0.12699845 0.38045937
0.20687725 -0.12710926 0.38045937
0.20875867 -0.12721118 0.38042814
0.21103416 -0.12700577 0.38027188
0.21316169 -0.12708397 0.38017368
0.21525468 -0.12750128 0.3800844
0.22344114 -0.12757291 0.3800844
0.22489041 -0.12723087 0.38011566
0.22686945 -0.12694155 0.38020942
0.22879505 -0.12692538 0.38033438
0.23080467 -0.12677115 0.38027191
0.2327034 -0.12686017 0.38014689
0.23415035 -0.12693843 0.3800844
0.033381652 -0.12596281 0.3800844
0.035004932 -0.12513952 0.38008437
0.037039995 -0.12473985 0.3800844
0.038878001 -0.12496787 0.3800844
0.065315716 -0.12554339 0.3800844
0.067132071 -0.12525532 0.3801344
0.069041543 -0.1252301 0.38020939
0.071212523 -0.12497025 0.38025627
0.073177099 -0.12490764 0.38027191
0.074836224 -0.12494694 0.38029274
0.076926909 -0.12502062 0.38038993
0.079006277 -0.12507264 0.3804177
0.081076607 -0.12510771 0.38038993
0.083216883 -0.12495943 0.3803094
0.084776819 -0.1247187 0.38024062
0.086846896 -0.12474907 0.38018858
0.088771015 -0.12490106 0.3800844
0.12350322 -0.1253261 0.3800844
0.12478741 -0.12536931 0.3800844
0.14116436 -0.12532133 0.3800844
0.14309594 -0.12487055 0.38018435
0.14515696 -0.12491269 0.38033438
0.14695473 -0.12502328 0.38045937
0.14874482 -0.12512484 0.3805531
0.15098745 -0.1252525 0.38066766
0.15317182 -0.12491281 0.38066766
0.15494637 -0.12499384 0.38068852
0.15690163 -0.12495482 0.3806915
0.15891804 -0.12501389 0.38066769
0.16110545 -0.12480566 0.38061556
0.16284728 -0.12485394 0.38052186
0.16489136 -0.12485544 0.38050932
0.16708066 -0.12515144 0.38058433
0.16916853 -0.12518071 0.38064682
0.17101043 -0.12529586 0.38074055
0.17281701 -0.12496375 0.38079265
0.17484884 -0.12496048 0.38087004
0.17713346 -0.12487453 0.3809593
0.17922121 -0.12488987 0.3809593
0.18104535 -0.12498038 0.3809593
0.18284406 -0.12505174 0.38089681
0.18490526 -0.12504262 0.38080934
0.18708393 -0.1253067 0.38073432
0.18926466 -0.12506349 0.38070932
0.19101112 -0.12498075 0.38070932
0.19281162 -0.12504514 0.38060513
0.19494022 -0.12488175 0.38051292
0.19736445 -0.12480995 0.38045937
0.19923408 -0.12491302 0.38045937
0.2010925 -0.12500727 0.38042814
0.20293936 -0.12509264 0.38036561
0.20480795 -0.12518971 0.38033438
0.20677701 -0.12503898 0.38033438
0.20889971 -0.12486674 0.38030314
0.21104677 -0.12508132 0.38023022
0.21319921 -0.12474312 0.38014692
0.22482622 -0.12517318 0.3800844
0.22669379 -0.1246969 0.38017815
0.2286907 -0.12484244 0.38024062
0.23065701 -0.12496914 0.38024062
0.23257297 -0.1250667 0.38014692
0.036620345 -0.12347943 0.3800844
0.067759216 -0.1239045 0.3800844
0.069128759 -0.12364894 0.3800844
0.071045578 -0.12299043 0.38010526
0.07311333 -0.12276227 0.38014692
0.074773058 -0.12280409 0.38017815
0.076848499 -0.12285498 0.38020942
0.078932904 -0.12291719 0.38027191
0.080998249 -0.12294691 0.38023022
0.083070002 -0.12298451 0.38020939
0.085134797 -0.12301004 0.38014689
0.086794347 -0.1234487 0.3800844
0.14326562 -0.12347507 0.3800844
0.14501691 -0.12313411 0.38014689
0.1468128 -0.12324297 0.38027188
0.14914224 -0.1230476 0.38038123
0.1512628 -0.12305605 0.38048017
0.15300949 -0.12270055 0.3804906
0.15478599 -0.12278327 0.38052186
0.15699613 -0.12287561 0.3805218
0.15918536 -0.12294929 0.38045937
0.16093522 -0.12300561 0.38039684
0.16294083 -0.12298021 0.3803094
0.16507891 -0.1232398 0.38028437
0.16718113 -0.12328217 0.38039684
0.16905753 -0.12311205 0.38040939
0.17078857 -0.12304016 0.38048017
0.17286015 -0.12263294 0.38053432
0.17511721 -0.12296487 0.38070932
0.17724097 -0.12300751 0.38080308
0.17910272 -0.12312548 0.38089681
0.18091044 -0.12320427 0.38086554
0.18295924 -0.12302004 0.38078433
0.18504922 -0.1230367 0.38070935
0.18722475 -0.12303782 0.38070932
0.18896517 -0.12295228 0.38070932
0.19088988 -0.1227897 0.38070932
0.1927098 -0.12286606 0.38064682
0.19498856 -0.1229617 0.3805635
0.197263 -0.12305262 0.38045937
0.19913125 -0.12315387 0.38045937
0.20097168 -0.12323628 0.38039687
0.20281702 -0.12332008 0.38033438
0.20482095 -0.12284183 0.38024512
0.20699358 -0.12295116 0.38027191
0.20931114 -0.12277199 0.38020939
0.21121332 -0.12288164 0.38020939
0.21308632 -0.12297259 0.38014689
0.21479559 -0.12290797 0.3800844
0.22553867 -0.12282183 0.3800844
0.22702225 -0.12292333 0.38011566
0.2290377 -0.12307684 0.38020939
0.23098493 -0.12319164 0.38017812
0.23260723 -0.12342922 0.38012609
0.0755575 -0.12152866 0.3800844
0.077212319 -0.12156113 0.3800844
0.078881629 -0.12161437 0.38014689
0.080941111 -0.12163702 0.3800844
0.083015852 -0.1216808 0.3800844
0.14713112 -0.12163989 0.38012609
0.14905006 -0.12099055 0.38018438
0.15107942 -0.12083054 0.38024062
0.15286271 -0.12092063 0.38030314
0.15491872 -0.12094258 0.38038439
0.1570563 -0.12120979 0.38040939
0.15904476 -0.12117483 0.38030314
0.1607928 -0.12123001 0.38024062
0.16297579 -0.12129559 0.38014689
0.16520396 -0.12139267 0.38014689
0.166991 -0.12147167 0.38014689
0.16868088 -0.12095456 0.38018441
0.17085245 -0.12072927 0.38025942
0.17310032 -0.1210566 0.38043436
0.17522743 -0.12110378 0.38055307
0.17709656 -0.12122841 0.38067806
0.17900503 -0.12106796 0.38070932
0.18072569 -0.12097678 0.38070932
0.18287247 -0.12096286 0.38067812
0.18524271 -0.12074374 0.38064682
0.18710895 -0.12085441 0.38070932
0.1889495 -0.1209466 0.38070932
0.19079489 -0.12104011 0.38070932
0.19291541 -0.12122887 0.38068432
0.19509503 -0.12114564 0.38060933
0.19725469 -0.12104806 0.38048434
0.19900531 -0.12095904 0.38045934
0.20083307 -0.12103296 0.38037601
0.2028151 -0.12096708 0.38020942
0.20514135 -0.12086926 0.38020939
0.20730823 -0.12090172 0.38020939
0.20920318 -0.12100798 0.38020939
0.21110392 -0.12111569 0.38020939
0.21299295 -0.12121489 0.38017815
0.2149597 -0.12105198 0.3801344
0.21676598 -0.1209788 0.38012609
0.21866591 -0.12107884 0.3800844
0.22056694 -0.1207502 0.3800844
0.22740105 -0.12160744 0.3800844
0.22932974 -0.12128384 0.3800844
0.23114169 -0.12154531 0.3800844
0.14965002 -0.11944321 0.3800844
0.15111679 -0.1192277 0.38012609
0.15274236 -0.11916448 0.38017815
0.15508179 -0.11908871 0.38022727
0.15714455 -0.11892182 0.38020942
0.15889613 -0.11898118 0.38016775
0.16052777 -0.1196087 0.38012609
0.16968675 -0.11913049 0.3800844
0.17136809 -0.1190892 0.38017812
0.1732246 -0.11920927 0.38030314
0.17516731 -0.11907689 0.38043436
0.17691834 -0.11901003 0.38052186
0.17868547 -0.1189515 0.38063431
0.1810333 -0.11879924 0.38062599
0.18329354 -0.11889443 0.38058433
0.18512285 -0.11898243 0.38058433
0.18695679 -0.11907171 0.38058433
0.18884201 -0.1191916 0.38067806
0.19097589 -0.1188658 0.38068852
0.19309612 -0.11907841 0.38067806
0.19524544 -0.11905208 0.38058433
0.19696432 -0.11894474 0.38050938
0.19888198 -0.11876822 0.38045937
0.20066956 -0.11881758 0.38030314
0.20295282 -0.11890637 0.38018855
0.20524825 -0.11900035 0.3800844
0.20713553 -0.11910325 0.3800844
0.20904565 -0.1192174 0.38011566
0.21103394 -0.11907028 0.3801344
0.21286307 -0.11901263 0.38018855
0.21467873 -0.11894532 0.38020939
0.21667439 -0.11879524 0.38020939
0.21887712 -0.11900338 0.38018435
0.22113831 -0.11893805 0.3801094
0.15308101 -0.11758129 0.3800844
0.1549813 -0.11709794 0.38012609
0.15700412 -0.11673784 0.3800844
0.15878901 -0.11723742 0.3800844
0.17169522 -0.11735311 0.3800844
0.17306228 -0.11700705 0.38016772
0.17481986 -0.11694626 0.3802844
0.17678596 -0.11682577 0.38045937
0.17891303 -0.11686458 0.38055936
0.18111463 -0.11714602 0.38058433
0.18317686 -0.11713804 0.38052183
0.18500464 -0.11722445 0.38052186
0.18690944 -0.11705191 0.38050938
0.18883832 -0.11684859 0.38051289
0.19095765 -0.11693951 0.38054267
0.19324201 -0.11675666 0.38052183
0.19506353 -0.11682987 0.38045937
0.19692187 -0.1169236 0.38045937
0.19873634 -0.11698986 0.38036561
0.20099016 -0.11706248 0.38020942
0.20311844 -0.11728426 0.3800844
0.20942377 -0.1179147 0.3800844
0.21065445 -0.11739822 0.3800844
0.21267185 -0.11677895 0.3800844
0.21463302 -0.11691356 0.38017815
0.21684797 -0.11695838 0.38020939
0.21915138 -0.11725809 0.38018438
0.22082342 -0.11723842 0.3800844
0.17339496 -0.11527596 0.3800844
0.1747694 -0.11493245 0.38017815
0.1766471 -0.11505927 0.38033438
0.17896934 -0.11519814 0.38045934
0.18124002 -0.11530098 0.38045937
0.18302079 -0.11493912 0.3804177
0.18483643 -0.11501729 0.38039684
0.18677439 -0.114802 0.38033438
0.18910889 -0.11486151 0.38035935
0.19122514 -0.11487795 0.38036561
0.19308755 -0.11497682 0.38039684
0.19493927 -0.11506758 0.38039684
0.19673134 -0.11512175 0.38027188
0.19902621 -0.11521965 0.38020942
0.20114715 -0.11543802 0.3800844
0.21514876 -0.11524972 0.3800844
0.21738169 -0.11530251 0.38014692
0.21911649 -0.11552885 0.3800844
0.17509861 -0.11320025 0.3800844
0.17726588 -0.11319158 0.38023022
0.17924316 -0.11300892 0.38029268
0.18103832 -0.11307701 0.38025105
0.18280192 -0.11270475 0.38017812
0.18460993 -0.11277793 0.38014689
0.18694723 -0.11333404 0.38020936
0.18924034 -0.11344101 0.38020939
0.19108036 -0.11352801 0.38020939
0.19304323 -0.1133217 0.38016772
0.19472069 -0.11325246 0.38014692
0.19684261 -0.11326562 0.3801344
0.19889528 -0.11366571 0.38011566
0.17594182 -0.1119476 0.3800844
