# .PCD v0.7 - Point Cloud Data file format
VERSION 0.7
FIELDS x y z
SIZE 4 4 4
TYPE F F F
COUNT 1 1 1
WIDTH 1342
HEIGHT 1
VIEWPOINT 0 0 0 1 0 0 0
POINTS 1342
DATA ascii
-0.090950489 -0.17503659 0.37710035
-0.088949427 -0.17480063 0.37726328
-0.087135136 -0.17495109 0.37745968
-0.0850759 -0.17496759 0.37765411
-0.082995884 -0.17494082 0.37775132
-0.081032954 -0.17504527 0.37788147
-0.078922167 -0.1747255 0.37795961
0.26116911 -0.17495175 0.37739715
0.26203319 -0.17547171 0.37645978
0.28113669 -0.17563547 0.3762098
-0.10068714 -0.17396417 0.37608483
-0.099109724 -0.17283061 0.37622765
-0.096945643 -0.17268781 0.37652227
-0.094903715 -0.17273033 0.37679306
-0.092836246 -0.17272682 0.37695974
-0.091173515 -0.17270739 0.37705344
-0.089110881 -0.17271231 0.37723053
-0.087046593 -0.17271422 0.37739718
-0.084978767 -0.17270863 0.377543
-0.08291661 -0.17271437 0.37770966
-0.080837458 -0.17295881 0.37775132
-0.078999802 -0.17255621 0.37783462
-0.077193975 -0.1729085 0.37795961
0.26159269 -0.17306085 0.37720972
0.2624875 -0.17253664 0.37608483
0.28285462 -0.17256173 0.37770966
-0.098730937 -0.17092405 0.37615982
-0.096855834 -0.17088215 0.37642854
-0.094984047 -0.17101234 0.37668476
-0.093004726 -0.17085135 0.37688476
-0.091097094 -0.17091671 0.37699097
-0.089036316 -0.17092188 0.37716803
-0.086981192 -0.17093831 0.37736595
-0.084908068 -0.17091894 0.37748051
-0.082840815 -0.17091078 0.3776159
-0.081184842 -0.17089903 0.37770966
-0.079100154 -0.1708519 0.37775132
-0.077045128 -0.1708678 0.37792838
-0.075797305 -0.17084423 0.37795961
0.2625902 -0.1710057 0.37699541
0.28229111 -0.17087731 0.37720972
-0.098545521 -0.16920431 0.3761265
-0.097023055 -0.16901429 0.37635976
-0.095145136 -0.16912994 0.37658477
-0.093096964 -0.169155 0.37681389
-0.091029167 -0.16914444 0.37695974
-0.088962622 -0.16913593 0.37710556
-0.086902186 -0.16913846 0.37727219
-0.085012347 -0.1692344 0.37743467
-0.083022773 -0.16904907 0.37755966
-0.081111491 -0.16910051 0.3776159
-0.079039842 -0.16907747 0.37770966
-0.07697577 -0.16907021 0.37783465
-0.075077616 -0.16898191 0.37795961
0.26309565 -0.16906404 0.37712637
0.26455081 -0.16883126 0.37630355
0.28163639 -0.16914263 0.37658477
-0.098745078 -0.16729556 0.37608483
-0.097219549 -0.16712774 0.37626335
-0.095138475 -0.16708215 0.37650976
-0.092998601 -0.16692244 0.37672365
-0.090934783 -0.16691549 0.37687638
-0.088872299 -0.16691057 0.37702918
-0.086817391 -0.16691959 0.37720969
-0.08518365 -0.1669472 0.37739718
-0.083113089 -0.16692583 0.37750137
-0.081039496 -0.16689695 0.37758467
-0.078975968 -0.16712238 0.37767392
-0.076907255 -0.16727714 0.37774089
-0.074852556 -0.16728587 0.37789714
-0.073185474 -0.16682915 0.37795961
0.26320252 -0.16697818 0.37739718
0.26476204 -0.16684031 0.37658477
0.26604134 -0.16636591 0.3762098
-0.098696686 -0.16598196 0.37608483
-0.096908316 -0.16499341 0.37622541
-0.094883993 -0.16495433 0.37645978
-0.092910081 -0.1647114 0.37666807
-0.090836696 -0.16468374 0.37677225
-0.089196637 -0.16469488 0.37692851
-0.087147713 -0.16471155 0.37712637
-0.085115828 -0.16476165 0.37739718
-0.083047085 -0.16474092 0.37750134
-0.080975309 -0.16471276 0.37758467
-0.078913376 -0.16501151 0.37766278
-0.076840162 -0.16507991 0.37770966
-0.075177133 -0.16504143 0.37773049
-0.073126107 -0.16505328 0.37789017
-0.071463451 -0.16460243 0.37795961
0.26339653 -0.16538888 0.37770963
0.26478219 -0.16508904 0.37692848
0.26649633 -0.16505006 0.37633479
0.28093502 -0.16427256 0.37645978
-0.096925408 -0.16289972 0.37616813
-0.094882861 -0.16292317 0.37639728
-0.092995211 -0.16301265 0.37655979
-0.091006964 -0.16282317 0.37668476
-0.089125678 -0.16292375 0.37686598
-0.08708331 -0.16294952 0.3770847
-0.085062504 -0.16301739 0.37739718
-0.082995184 -0.16299719 0.37750134
-0.080924816 -0.16296959 0.37758467
-0.078860469 -0.16295283 0.37768885
-0.076780431 -0.16290176 0.37770966
-0.075114697 -0.16285501 0.37770966
-0.073062845 -0.16286103 0.37785545
-0.071145914 -0.16299921 0.37795961
0.26364708 -0.16344777 0.37789714
0.2647832 -0.16332579 0.37724096
0.26691267 -0.16326945 0.37648061
-0.096864589 -0.16115855 0.37616813
-0.094823487 -0.16118206 0.37639731
-0.093168929 -0.1611639 0.37649101
-0.09111169 -0.1611595 0.37664726
-0.08904814 -0.16114335 0.37677222
-0.08702939 -0.16120924 0.37708473
-0.085009962 -0.1612767 0.37739718
-0.082944058 -0.16125695 0.37750134
-0.080875099 -0.16122992 0.37758467
-0.079233333 -0.16123448 0.37770966
-0.077149965 -0.16117509 0.37770966
-0.075068854 -0.16111729 0.37770966
-0.07301835 -0.16112348 0.37785545
-0.071102627 -0.16126168 0.37795961
0.2648935 -0.16094624 0.3774775
0.26693851 -0.16112404 0.37669414
0.26878038 -0.16076604 0.37614733
-0.097204171 -0.1589932 0.3761473
-0.095150657 -0.15899312 0.37632093
-0.093089737 -0.15897995 0.37645981
-0.091030225 -0.15896873 0.37659866
-0.088975288 -0.15896489 0.37675139
-0.086947128 -0.15900977 0.37701529
-0.084921964 -0.15906201 0.37729299
-0.082872145 -0.15906924 0.37745968
-0.080809534 -0.15905167 0.37756383
-0.079156101 -0.15903009 0.37762633
-0.077091955 -0.15900683 0.37770966
-0.075016648 -0.15895884 0.37773049
-0.072970361 -0.15897113 0.37789017
-0.071333207 -0.15939021 0.37795961
0.26521128 -0.15888795 0.37753466
0.26711231 -0.15871546 0.37677228
0.26887101 -0.15870537 0.37624103
-0.096979439 -0.15694007 0.37608483
-0.095061176 -0.15679808 0.37625146
-0.0930195 -0.15681443 0.37645978
-0.090943277 -0.15677187 0.3765223
-0.088898748 -0.1567829 0.37670976
-0.086864509 -0.15681307 0.37693891
-0.084832877 -0.15684909 0.37717843
-0.083199725 -0.15686445 0.37733468
-0.081143774 -0.15685582 0.37745968
-0.079088748 -0.15684879 0.37758467
-0.07703495 -0.1568435 0.37770966
-0.074969538 -0.1568138 0.37777215
-0.07309828 -0.1569283 0.37795961
0.26534647 -0.15695924 0.37758467
0.26690134 -0.15682957 0.37677225
0.26867992 -0.15683194 0.37627226
0.27873036 -0.15642014 0.3762098
0.28001881 -0.15708494 0.37639728
-0.096637279 -0.15505737 0.37608483
-0.095004596 -0.15506946 0.37625146
-0.092948794 -0.15506017 0.37639731
-0.090874463 -0.15501834 0.37645981
-0.088824131 -0.15501675 0.376616
-0.087191947 -0.15502948 0.37677222
-0.085169353 -0.15507807 0.37704304
-0.083130345 -0.15509808 0.37724096
-0.081082843 -0.15510273 0.37739718
-0.079029486 -0.15509602 0.37752217
-0.07699015 -0.15511669 0.37770966
-0.07494466 -0.15512598 0.37786588
-0.073444575 -0.15526907 0.37795961
0.26545206 -0.15531932 0.37775132
0.2668485 -0.15503813 0.37699097
0.2690337 -0.15501934 0.37631395
0.27095732 -0.15466468 0.37608483
0.2787956 -0.15512797 0.37652227
0.28079045 -0.15440486 0.37795961
-0.094914101 -0.15287966 0.37616813
-0.092781305 -0.1530387 0.37630978
-0.091231234 -0.15329462 0.37642854
-0.089162447 -0.15325908 0.37650144
-0.087126948 -0.15328021 0.37670976
-0.085082814 -0.15287851 0.376932
-0.083045274 -0.15289722 0.37712637
-0.080999248 -0.15290073 0.37727913
-0.078964211 -0.15292539 0.37748051
-0.076926559 -0.152946 0.37766799
-0.074897408 -0.15298501 0.37789714
-0.073665239 -0.15297878 0.37795961
0.26560086 -0.1533258 0.37777215
0.26686484 -0.15328734 0.37730345
0.26886958 -0.15335485 0.37665975
0.27126047 -0.15293126 0.37637049
0.27288803 -0.15254995 0.37614733
0.27853066 -0.15321046 0.37645978
0.28044075 -0.15288016 0.37770966
-0.094422758 -0.15070704 0.37614733
-0.092865869 -0.15094937 0.37623477
-0.091143161 -0.15110636 0.37633479
-0.089085631 -0.15108706 0.37644589
-0.087050319 -0.15110542 0.37664726
-0.08500991 -0.15070716 0.37687644
-0.082956724 -0.15069395 0.37699097
-0.080922775 -0.15071572 0.37718889
-0.078891158 -0.1507431 0.37739718
-0.076855473 -0.15076376 0.37758467
-0.074832544 -0.1508109 0.37783465
-0.073334128 -0.15067996 0.37795961
0.26553267 -0.15152617 0.37795961
0.26687104 -0.15109029 0.37766799
0.26867625 -0.1511075 0.37720969
0.27072242 -0.15102935 0.37685558
0.27311149 -0.15072469 0.37645978
0.27473602 -0.15038596 0.37608483
0.27699125 -0.15064579 0.3762098
0.27847767 -0.15096836 0.37675142
0.28037128 -0.15151004 0.37783465
-0.094771199 -0.14897892 0.37608483
-0.093133211 -0.14897583 0.37620977
-0.091071337 -0.14894857 0.37630352
-0.089011468 -0.14892296 0.37639728
-0.086960442 -0.14891118 0.3765223
-0.084939055 -0.1489505 0.37677225
-0.082903735 -0.14896654 0.37695974
-0.080864385 -0.14897601 0.37712637
-0.078821369 -0.14897858 0.37727219
-0.077202104 -0.14900976 0.37745968
-0.075172544 -0.14903986 0.37766799
-0.073146969 -0.14907956 0.37789711
-0.071907476 -0.14864615 0.37795961
0.26731718 -0.14889103 0.37789714
0.26875985 -0.14895278 0.37767842
0.2706514 -0.14901654 0.37733468
0.27303365 -0.14910461 0.37691808
0.27537179 -0.14916725 0.37642854
0.27710557 -0.14883949 0.37705344
-0.094731539 -0.14769351 0.37608483
-0.093071081 -0.14724638 0.37616813
-0.090998255 -0.14719927 0.3762098
-0.088947527 -0.1471865 0.37633479
-0.086905353 -0.14718732 0.37649101
-0.084878303 -0.14721425 0.37670973
-0.082844496 -0.1472303 0.37689728
-0.080968522 -0.14731836 0.37703472
-0.079011776 -0.14716364 0.37720969
-0.07715366 -0.14728589 0.37742841
-0.075110964 -0.14728741 0.37756383
-0.073065378 -0.14687531 0.37773049
-0.07113415 -0.14679354 0.37791276
-0.069370791 -0.1460243 0.37795961
0.26892754 -0.147349 0.37791798
0.27072111 -0.14729229 0.37770966
0.27271128 -0.14696626 0.37756383
0.27466789 -0.14706132 0.37729302
0.27708492 -0.14695781 0.37770966
-0.092757083 -0.14519916 0.37610269
-0.09093634 -0.14506346 0.37620977
-0.088877328 -0.14503509 0.37629306
-0.086839378 -0.14504021 0.37645981
-0.085049227 -0.14518677 0.3766562
-0.083072886 -0.14495483 0.37678787
-0.081140026 -0.14506756 0.37693894
-0.07910917 -0.14508647 0.37712637
-0.077070192 -0.14509071 0.37727216
-0.075040251 -0.14511245 0.37745968
-0.072988667 -0.14468516 0.37758467
-0.070963576 -0.14471777 0.37779295
-0.06906534 -0.14459659 0.37795961
0.27086869 -0.14567618 0.37791798
0.2728852 -0.14492169 0.37787628
0.27478909 -0.14491862 0.37780342
0.27687117 -0.14530171 0.37791798
-0.092508562 -0.1429331 0.37608483
-0.090875573 -0.14293198 0.3762098
-0.088984534 -0.14299096 0.37628478
-0.087022513 -0.14282198 0.3764348
-0.08515121 -0.14291188 0.37658477
-0.083107159 -0.14290419 0.37670973
-0.081070788 -0.14290974 0.37686601
-0.079030924 -0.14290883 0.3770014
-0.077000432 -0.14292514 0.37717843
-0.0749579 -0.14291926 0.37729299
-0.072926506 -0.1429344 0.37745968
-0.070903234 -0.14296682 0.37766799
-0.068883553 -0.14300843 0.37789714
-0.067380585 -0.14285812 0.37795961
-0.092044093 -0.14121905 0.37608483
-0.09082026 -0.14121851 0.37617856
-0.089174256 -0.1411951 0.37624103
-0.087141365 -0.14120431 0.37641814
-0.085099742 -0.14119931 0.37655354
-0.08305008 -0.14118017 0.37664723
-0.08100187 -0.14116244 0.37674102
-0.078968219 -0.14116959 0.37689725
-0.076922439 -0.14115469 0.37699097
-0.074894585 -0.14117251 0.37716803
-0.07286486 -0.1411877 0.37733468
-0.070843406 -0.14121993 0.377543
-0.068819903 -0.14124954 0.37774089
-0.067206189 -0.14128515 0.37792838
-0.065699466 -0.14112444 0.37795961
-0.092008218 -0.13994446 0.37608483
-0.090925626 -0.13907912 0.37612054
-0.08910951 -0.13906118 0.37620977
-0.087072618 -0.13906166 0.37636253
-0.085024148 -0.13904278 0.37645981
-0.082971103 -0.13901533 0.37652922
-0.080930166 -0.13900711 0.37664723
-0.078887567 -0.1389952 0.37675139
-0.076850392 -0.13899232 0.37687644
-0.075043984 -0.13910183 0.37695977
-0.073080242 -0.13888216 0.37710032
-0.071167499 -0.13902389 0.37731385
-0.06915465 -0.13906971 0.37755689
-0.067132607 -0.13909888 0.37775132
-0.065108031 -0.13912436 0.37793183
-0.063460797 -0.13867903 0.37795961
-0.09068168 -0.13694258 0.37608483
-0.089053214 -0.13694306 0.3762098
-0.087001689 -0.13691847 0.37629309
-0.084963635 -0.13691415 0.37642854
-0.082903862 -0.13687341 0.37645981
-0.08086618 -0.13686804 0.37658477
-0.078991324 -0.13694349 0.37668476
-0.077019021 -0.13674645 0.37673476
-0.075152576 -0.13683555 0.37686601
-0.073121049 -0.13683921 0.3770014
-0.071103953 -0.13687059 0.37720969
-0.069090419 -0.13691096 0.37743887
-0.067072786 -0.13694493 0.37764716
-0.065051205 -0.13697277 0.37783465
-0.063153557 -0.13684082 0.37795961
-0.09022209 -0.13523991 0.37608483
-0.089001603 -0.13524055 0.37617856
-0.086944245 -0.13520521 0.3762306
-0.084907591 -0.13520117 0.37636605
-0.082858421 -0.13517611 0.37643895
-0.080812983 -0.13515604 0.37652227
-0.07919009 -0.13516195 0.37664726
-0.077142991 -0.13513698 0.37670973
-0.075103477 -0.13512446 0.37680352
-0.073077403 -0.13513577 0.37695977
-0.071057603 -0.13515946 0.3771472
-0.069037862 -0.13518454 0.37733468
-0.067023769 -0.13522205 0.37755343
-0.065005593 -0.13525341 0.37775132
-0.062902391 -0.13503511 0.37795961
-0.061743565 -0.13442378 0.37795961
-0.088801675 -0.13365571 0.37608483
-0.086873837 -0.13306898 0.37615424
-0.084825665 -0.13304432 0.3762306
-0.083027855 -0.13316332 0.37635264
-0.081054315 -0.13292265 0.37644419
-0.079125009 -0.13302486 0.37656394
-0.077093832 -0.13302499 0.37669584
-0.075044028 -0.13299206 0.37673059
-0.073014945 -0.13299486 0.37686259
-0.070983946 -0.13299388 0.37698057
-0.068966419 -0.1330189 0.37716803
-0.066952609 -0.13305236 0.37737635
-0.064943187 -0.13309683 0.37761244
-0.063009918 -0.13297066 0.37783465
-0.061057687 -0.13264298 0.37795961
-0.05925018 -0.13227554 0.37795961
-0.086816154 -0.13136008 0.37608483
-0.084997594 -0.13098793 0.37610981
-0.083121002 -0.13089313 0.3762098
-0.081101671 -0.13091028 0.37639728
-0.07906951 -0.13090684 0.3765223
-0.077042721 -0.13091204 0.3766681
-0.074995838 -0.13088226 0.37670976
-0.072958723 -0.1308683 0.37679306
-0.070932649 -0.13087367 0.37692851
-0.068899579 -0.13086581 0.37702224
-0.066884138 -0.13089168 0.37720969
-0.064879283 -0.1309406 0.37745968
-0.062873647 -0.13099056 0.37770966
-0.060856983 -0.1310202 0.37789714
-0.05882065 -0.13100761 0.37795961
-0.057178199 -0.13056107 0.37795961
-0.055952057 -0.13054179 0.37795961
-0.084300376 -0.12961896 0.37608483
-0.083075359 -0.12920257 0.37617856
-0.081050448 -0.12920888 0.37633479
-0.079032883 -0.12922716 0.3765223
-0.077007115 -0.12923248 0.3766681
-0.074961253 -0.12920322 0.37670976
-0.072925158 -0.12918963 0.37679306
-0.070894182 -0.12918431 0.37689728
-0.068856716 -0.12916607 0.37695977
-0.066842437 -0.12919174 0.3771472
-0.064828143 -0.12921876 0.37733468
-0.062824182 -0.12926833 0.37758467
-0.060939968 -0.12915313 0.37775135
-0.059062716 -0.12887707 0.3778525
-0.057149306 -0.12887578 0.37793878
-0.055110291 -0.12885156 0.37795961
-0.053069539 -0.12882119 0.37795961
-0.082813077 -0.12729016 0.37611607
-0.080995373 -0.12709896 0.37629306
-0.078979291 -0.12711714 0.37648061
-0.076960631 -0.12713192 0.37665418
-0.074918874 -0.12710802 0.37670973
-0.072884038 -0.12709482 0.37679306
-0.070850395 -0.12708284 0.37687638
-0.069054164 -0.12719594 0.37695977
-0.067087844 -0.1269564 0.37702224
-0.065175898 -0.1270823 0.37718883
-0.063165613 -0.12711467 0.37739027
-0.06122487 -0.12696293 0.37753466
-0.05912441 -0.12690951 0.37769178
-0.05709254 -0.12672526 0.37777215
-0.05507068 -0.12673651 0.37789714
-0.053046152 -0.12714642 0.37795961
-0.051239252 -0.12700169 0.37795958
-0.082558595 -0.12539159 0.37608483
-0.080932222 -0.12497907 0.37620977
-0.078924343 -0.12500754 0.37642851
-0.076899372 -0.12500964 0.37656394
-0.074871078 -0.12500596 0.37667853
-0.072831668 -0.1249828 0.37673056
-0.0707976 -0.12496771 0.37680349
-0.069177836 -0.12496828 0.37689725
-0.067144051 -0.12495186 0.37695977
-0.065116756 -0.12494699 0.37705347
-0.063107826 -0.12497782 0.37725136
-0.061095186 -0.12500288 0.37742841
-0.059069324 -0.12500152 0.37752214
-0.05705357 -0.12502193 0.37767842
-0.055028629 -0.12502286 0.37777218
-0.053012989 -0.12504554 0.37792838
-0.050980389 -0.12502803 0.37795961
-0.049351685 -0.12500654 0.37795961
-0.080644354 -0.12298797 0.37615624
-0.078852952 -0.12287537 0.37629309
-0.076931357 -0.12297879 0.37641293
-0.074967422 -0.12274295 0.37649554
-0.073193431 -0.12329334 0.37664723
-0.071035065 -0.12308831 0.37669188
-0.069125004 -0.1232578 0.37677225
-0.067103878 -0.1232622 0.37689725
-0.065154359 -0.12300684 0.37698475
-0.062956303 -0.12296024 0.3771472
-0.061037287 -0.12286559 0.37727216
-0.059021585 -0.12288138 0.37741801
-0.056999639 -0.12288466 0.3775222
-0.054984272 -0.12290266 0.37766799
-0.052965909 -0.12291493 0.37779298
-0.050947752 -0.1229284 0.37791795
-0.048998185 -0.12275 0.37795961
-0.047688823 -0.12206717 0.37795961
-0.080005728 -0.12116585 0.37608483
-0.078780316 -0.12074451 0.37614733
-0.077154033 -0.12073158 0.3762098
-0.075119376 -0.12071162 0.37627229
-0.073109977 -0.12113569 0.37641811
-0.071182787 -0.12102407 0.37650666
-0.069065437 -0.12113464 0.37664723
-0.067042485 -0.12113246 0.37675142
-0.064940944 -0.12097293 0.37688476
-0.063117534 -0.120907 0.37699547
-0.060990147 -0.12075324 0.37717843
-0.058967907 -0.12075224 0.37727216
-0.056955747 -0.12077229 0.37742841
-0.054937389 -0.12078017 0.377543
-0.052926764 -0.12080566 0.37770966
-0.050898891 -0.12079242 0.37775132
-0.048881382 -0.12080345 0.37786588
-0.047023088 -0.12072764 0.37795961
-0.04117427 -0.12033042 0.37795961
-0.03914699 -0.12031005 0.37795961
-0.037120853 -0.12029087 0.37795961
-0.07833264 -0.11946815 0.37608483
-0.076962374 -0.11916424 0.37608483
-0.075063094 -0.11900888 0.3761473
-0.073025286 -0.11898043 0.37617856
-0.071009018 -0.1189862 0.37631392
-0.069000922 -0.11900612 0.37649101
-0.066985443 -0.11901408 0.37662646
-0.06496688 -0.11901647 0.37674099
-0.062962852 -0.11904634 0.37693894
-0.060944892 -0.11905092 0.37705347
-0.058930766 -0.11906321 0.37718883
-0.056913596 -0.11906995 0.37730345
-0.054902885 -0.11909097 0.37745968
-0.052892029 -0.11911296 0.37761593
-0.050872628 -0.11911636 0.37770966
-0.048845384 -0.11910111 0.37774089
-0.046834707 -0.11912634 0.37789711
-0.04481259 -0.11912299 0.37795961
-0.043189552 -0.11910535 0.37795961
-0.041155055 -0.1190647 0.37789714
-0.039128743 -0.11904462 0.37789714
-0.037103578 -0.11902568 0.37789714
-0.035085149 -0.11902732 0.37795961
-0.033262305 -0.11880466 0.37795961
-0.031440232 -0.11858279 0.37795961
-0.072576329 -0.11769842 0.37608483
-0.070748314 -0.11747804 0.37614733
-0.068927027 -0.11726819 0.37624103
-0.06681627 -0.11698005 0.37642854
-0.064914294 -0.11690655 0.37662646
-0.06290669 -0.11692628 0.37679306
-0.060899127 -0.11694703 0.37695977
-0.0588849 -0.11695615 0.37708473
-0.056867819 -0.11695961 0.37718883
-0.054857232 -0.11697724 0.37733471
-0.05284375 -0.11698928 0.37745965
-0.050928887 -0.11709768 0.37755343
-0.048978005 -0.11687262 0.3776204
-0.047021329 -0.11711418 0.37770966
-0.04506743 -0.11687998 0.37774089
-0.043144409 -0.1169663 0.37775132
-0.041111343 -0.1169242 0.37768185
-0.039085757 -0.11690032 0.37766799
-0.03706551 -0.1168904 0.37769574
-0.035048608 -0.11689002 0.37775132
-0.033030786 -0.11688646 0.37779295
-0.031015158 -0.11689025 0.37785545
-0.029100839 -0.11679543 0.37792838
-0.027114041 -0.11634316 0.37795961
-0.025766226 -0.11605879 0.37795961
-0.068470351 -0.11597023 0.37608483
-0.066841409 -0.115004 0.37616813
-0.064831898 -0.11474681 0.37633479
-0.062847786 -0.11480451 0.3766264
-0.060838833 -0.1148188 0.37677225
-0.058833193 -0.11484043 0.37693894
-0.056814812 -0.11483772 0.37702221
-0.054972064 -0.11494501 0.37718469
-0.053032398 -0.11477729 0.3772597
-0.051186036 -0.11487873 0.37739718
-0.049163755 -0.11486721 0.37743887
-0.047147579 -0.11486942 0.37752217
-0.045126777 -0.11485995 0.37756383
-0.043097343 -0.1148261 0.37752217
-0.041071828 -0.11479964 0.37750134
-0.039045341 -0.11476776 0.37745968
-0.0370286 -0.11476237 0.37750134
-0.035010502 -0.11475156 0.37752217
-0.032994881 -0.1147481 0.37756383
-0.030983238 -0.11475824 0.37764716
-0.028971456 -0.11476937 0.37773049
-0.026961016 -0.11478784 0.37783465
-0.024950275 -0.11480724 0.37793878
-0.022931863 -0.114389 0.37795961
-0.064779878 -0.1130469 0.37617856
-0.062946782 -0.11316329 0.37638476
-0.061031569 -0.11303717 0.37660974
-0.059185591 -0.11313268 0.37674102
-0.057179939 -0.11315183 0.37689725
-0.055165052 -0.11315319 0.37699097
-0.053153604 -0.11316189 0.37710556
-0.051141031 -0.11316827 0.37720969
-0.049120571 -0.11315712 0.37725136
-0.047106139 -0.11315937 0.37733468
-0.045092229 -0.11316261 0.37741801
-0.043070316 -0.11314493 0.37742841
-0.041044895 -0.11311585 0.37739718
-0.039024107 -0.11309705 0.37739718
-0.037004452 -0.11307928 0.37739718
-0.03498859 -0.11307175 0.37742841
-0.032973465 -0.11306527 0.37745968
-0.030956233 -0.11305036 0.37745968
-0.028947787 -0.11306774 0.37756383
-0.026937637 -0.1130797 0.37764716
-0.024932688 -0.11311764 0.37781382
-0.022921698 -0.11313152 0.37789714
-0.02110989 -0.11293472 0.37795961
-0.064339034 -0.11177493 0.37608483
-0.063043013 -0.11111864 0.37615982
-0.061132934 -0.11099802 0.37640426
-0.059126571 -0.11101087 0.37654313
-0.057122495 -0.11102876 0.37669584
-0.055110157 -0.11103127 0.37679306
-0.053106204 -0.11105112 0.37694585
-0.051088858 -0.11104327 0.3770014
-0.049075909 -0.1110447 0.37708473
-0.047063436 -0.11104695 0.37716803
-0.045049686 -0.11104616 0.37723744
-0.043030072 -0.11102998 0.37725136
-0.041005529 -0.1109984 0.37720969
-0.038984533 -0.11097389 0.37718883
-0.03697167 -0.11097085 0.37723744
-0.034956079 -0.11095849 0.37725136
-0.03294374 -0.1109553 0.37729299
-0.030928353 -0.11094073 0.37729302
-0.028917048 -0.11093953 0.37733471
-0.026910447 -0.11095742 0.37743887
-0.0249044 -0.11098046 0.37755692
-0.022897379 -0.11100224 0.37766799
-0.020888908 -0.11102108 0.37776521
-0.018880738 -0.11104477 0.37787628
-0.016982529 -0.1108105 0.37790605
-0.014854225 -0.11063291 0.37792838
-0.013003057 -0.11055404 0.37795961
-0.010828324 -0.11021893 0.37795961
-0.062680088 -0.10927992 0.37608483
-0.061073061 -0.10888218 0.37620977
-0.059076395 -0.10890896 0.37639728
-0.057069808 -0.10891863 0.3765223
-0.055063523 -0.10892927 0.37664723
-0.053054437 -0.10893484 0.37675142
-0.051042795 -0.10893531 0.37683475
-0.049031794 -0.10893678 0.37691808
-0.047015961 -0.10892704 0.37695974
-0.045003492 -0.10892446 0.37702224
-0.042984366 -0.10890464 0.37702224
-0.040966485 -0.10888582 0.37702224
-0.038949631 -0.10886788 0.37702224
-0.036933888 -0.10885093 0.37702224
-0.034921933 -0.10884385 0.37705347
-0.032910801 -0.10883779 0.37708473
-0.03089226 -0.10880557 0.37702221
-0.02888643 -0.10881638 0.37710556
-0.026882093 -0.10883398 0.37720969
-0.024877222 -0.10885271 0.37731385
-0.022872632 -0.10887516 0.37742844
-0.020865096 -0.10888664 0.37750134
-0.018860985 -0.10891999 0.37764716
-0.016851112 -0.1089242 0.3776888
-0.014840475 -0.10892327 0.37770966
-0.012830644 -0.1089294 0.37775132
-0.01082103 -0.10893937 0.37780342
-0.0089732008 -0.10888386 0.37790963
-0.0068013254 -0.10856557 0.37795961
-0.0051922216 -0.10856362 0.37795961
-0.0035831979 -0.10856226 0.37795961
-0.0606356 -0.10721426 0.37614733
-0.059030473 -0.10721953 0.37624103
-0.057023954 -0.10722628 0.37635562
-0.055020809 -0.10723976 0.37649101
-0.053008925 -0.1072365 0.37656394
-0.050999157 -0.10723705 0.37664726
-0.048989844 -0.10723856 0.37673056
-0.04697964 -0.10723801 0.37680349
-0.04497252 -0.10724441 0.37689725
-0.04295481 -0.10722496 0.37689728
-0.040938344 -0.1072065 0.37689725
-0.038922898 -0.10718891 0.37689728
-0.036908567 -0.10717228 0.37689725
-0.034900948 -0.10717423 0.37695974
-0.0328882 -0.10715944 0.37695977
-0.030876264 -0.10714547 0.37695974
-0.028865209 -0.10713249 0.37695977
-0.026861507 -0.10714703 0.37705347
-0.024860336 -0.10717431 0.37718883
-0.02285523 -0.10718769 0.37727219
-0.020852044 -0.10721377 0.37739718
-0.018845094 -0.10722293 0.37745968
-0.016836097 -0.10722127 0.37748051
-0.014825567 -0.10720855 0.37745968
-0.012817077 -0.10720867 0.37748051
-0.010809359 -0.10721555 0.37752217
-0.0088038296 -0.1072529 0.37766799
-0.0067962934 -0.10727927 0.37777215
-0.0051076445 -0.10702745 0.37775967
-0.0031789783 -0.10688306 0.37783465
-0.001169237 -0.10689407 0.37787631
0.00074025616 -0.10680182 0.37791276
0.0027170025 -0.10637096 0.37795961
0.0044590263 -0.10609877 0.37795961
-0.060204457 -0.10595933 0.37608483
-0.058904946 -0.10529337 0.37610984
-0.056974608 -0.10512915 0.37619591
-0.054964621 -0.10512603 0.37627229
-0.052959252 -0.10513169 0.37637648
-0.050948549 -0.10512645 0.37643898
-0.048940416 -0.10512619 0.37651533
-0.046934444 -0.10513065 0.3766056
-0.044925559 -0.10512824 0.37666807
-0.042914737 -0.10512079 0.37670973
-0.040900186 -0.10510278 0.37670973
-0.038886651 -0.10508561 0.37670973
-0.036876917 -0.10507721 0.37673751
-0.034870438 -0.10507733 0.37679306
-0.032864258 -0.10507839 0.37684864
-0.030856149 -0.10507251 0.37687644
-0.028848525 -0.1050676 0.37690422
-0.026843354 -0.10507113 0.37695977
-0.024840087 -0.10508356 0.3770431
-0.022837894 -0.10510246 0.3771472
-0.020832855 -0.10511068 0.37720969
-0.018826718 -0.10511396 0.37725136
-0.016818151 -0.10510272 0.37723747
-0.014809534 -0.10508844 0.37720969
-0.013030891 -0.10519047 0.37717399
-0.011095695 -0.10496749 0.37717846
-0.0091928374 -0.10509787 0.37729302
-0.0071882997 -0.10512556 0.37740412
-0.0052622608 -0.10497464 0.37745968
-0.0031752188 -0.10474446 0.3775222
-0.001168314 -0.10477842 0.37764716
0.00083971472 -0.10478437 0.37766802
0.0028485386 -0.10481432 0.37777215
0.0048586549 -0.10484517 0.37787631
0.0068689063 -0.1044607 0.37795961
-0.056396097 -0.1031796 0.37608483
-0.054922704 -0.10304294 0.3761473
-0.052913088 -0.10303708 0.37620977
-0.050904155 -0.1030322 0.37627229
-0.048901383 -0.10303959 0.37637642
-0.046896227 -0.10304208 0.37645978
-0.044886466 -0.10303418 0.37650147
-0.042875107 -0.1030214 0.3765223
-0.040862445 -0.10300384 0.37652227
-0.038850799 -0.10298709 0.37652227
-0.036846288 -0.10298833 0.37658477
-0.034842204 -0.10299043 0.37664723
-0.032838345 -0.10299337 0.37670973
-0.030829519 -0.1029801 0.37670976
-0.028824704 -0.10297916 0.37675142
-0.026823206 -0.10299033 0.37683475
-0.024822854 -0.10300818 0.37693894
-0.022818904 -0.10301258 0.37699097
-0.020813908 -0.1030122 0.37702224
-0.018809084 -0.10301256 0.37705347
-0.017202726 -0.10299818 0.37702224
-0.015193026 -0.10296315 0.37691808
-0.013186563 -0.10294323 0.37686598
-0.011182184 -0.10293552 0.37685558
-0.0091795688 -0.10294278 0.37689728
-0.0071790032 -0.10298511 0.37706387
-0.0051762601 -0.10301399 0.37717843
-0.003172365 -0.10304385 0.37729302
-0.0011673397 -0.10307159 0.37739718
0.00083881483 -0.10308883 0.37745965
0.0028454906 -0.10310691 0.37752217
0.004853595 -0.10313726 0.3776263
0.0068630739 -0.10317118 0.37774089
0.0088734692 -0.10320047 0.37783465
0.010884228 -0.10322186 0.37789711
0.012893842 -0.10322713 0.37789714
0.014900023 -0.10280631 0.37783465
0.0169155 -0.10284726 0.37795961
0.018920224 -0.10282098 0.37783465
0.020934016 -0.10324529 0.37785545
0.022944486 -0.10324909 0.37783465
0.024956731 -0.10325948 0.37783465
0.027048733 -0.10302524 0.37783462
0.028864311 -0.10263783 0.37783462
0.030863998 -0.10236057 0.37791798
-0.054495979 -0.10179376 0.37608483
-0.052720726 -0.10145384 0.37610981
-0.05086593 -0.10095387 0.3761473
-0.048859298 -0.10095 0.3762098
-0.046853308 -0.10094704 0.37627229
-0.04484798 -0.10094504 0.37633479
-0.042835962 -0.10092699 0.37633479
-0.040825173 -0.10090986 0.37633479
-0.038815394 -0.10089352 0.37633479
-0.036912374 -0.10099338 0.37638167
-0.034976788 -0.10076714 0.37640622
-0.032906745 -0.10099424 0.37649104
-0.030970575 -0.10076423 0.37649554
-0.028903387 -0.10100269 0.37661603
-0.026972054 -0.10078858 0.37667403
-0.024904557 -0.10103115 0.37680352
-0.022972589 -0.10081631 0.37685257
-0.021029672 -0.10106014 0.37692404
-0.019094 -0.10082648 0.37689728
-0.017186329 -0.10089942 0.37681392
-0.015278369 -0.10096316 0.37669411
-0.013173608 -0.10124221 0.376616
-0.011169375 -0.10121783 0.37654313
-0.0091706142 -0.10124183 0.37664726
-0.0071716923 -0.10127795 0.37679306
-0.0051696692 -0.1008789 0.37683475
-0.0031685589 -0.10091464 0.37697366
-0.0011661291 -0.10094368 0.37708473
0.00083758112 -0.10097358 0.37719581
0.0028417148 -0.10097831 0.37720966
0.0048466856 -0.10099511 0.37726527
0.0068525723 -0.10101622 0.37733468
0.0088594658 -0.1010384 0.37740412
0.010865671 -0.10104638 0.37741804
0.012873825 -0.10106646 0.37747359
0.01488175 -0.10107975 0.37750134
0.016889192 -0.10108655 0.37750131
0.018896002 -0.10108859 0.37748051
0.020900879 -0.10108027 0.37741801
0.022909394 -0.10108951 0.37741801
0.024920436 -0.10110702 0.37744582
0.026848212 -0.1009508 0.37743467
0.028946258 -0.10074636 0.37754297
0.030974213 -0.10081168 0.37774092
0.032465164 -0.10073212 0.37791798
-0.05043792 -0.099299543 0.37608483
-0.048662953 -0.098955624 0.37608483
-0.046818685 -0.098872826 0.37614733
-0.044812325 -0.098865353 0.37618896
-0.042800833 -0.09884505 0.37617856
-0.041189976 -0.098823413 0.3761473
-0.039181899 -0.098807387 0.3761473
-0.037174799 -0.098792128 0.37614733
-0.035174586 -0.098794103 0.37620977
-0.033171788 -0.098788738 0.37624103
-0.031173015 -0.098795198 0.37631395
-0.029175181 -0.098805085 0.37639731
-0.027178651 -0.09882132 0.37650144
-0.025184546 -0.098849289 0.37664726
-0.023184413 -0.098856144 0.37670973
-0.021182388 -0.098855674 0.37674099
-0.019177502 -0.098839581 0.37670973
-0.017170561 -0.098807931 0.376616
-0.015048732 -0.098934956 0.37645978
-0.01315936 -0.099135213 0.37635562
-0.011156457 -0.099103093 0.37625143
-0.0091595082 -0.09912125 0.37633479
-0.007162651 -0.099151075 0.37645981
-0.005163521 -0.0987579 0.3765223
-0.0031651603 -0.09880016 0.37668893
-0.0011650524 -0.098837793 0.37683475
0.00083631306 -0.09885437 0.37689725
0.0028379722 -0.098855309 0.37689728
0.0048397263 -0.098857105 0.37689725
0.006841613 -0.098859653 0.37689728
0.0088437079 -0.098863065 0.37689725
0.010846966 -0.098875433 0.37692848
0.012853696 -0.098910511 0.37704304
0.014859047 -0.098927245 0.3770847
0.01686625 -0.0989502 0.3771472
0.018871419 -0.098957583 0.3771472
0.020870224 -0.098933041 0.37702224
0.022875808 -0.098942034 0.37702224
0.024891725 -0.098990142 0.37716803
0.02690457 -0.099019893 0.37724093
0.028923869 -0.09906695 0.37737635
0.030951157 -0.099133953 0.37758467
0.033102416 -0.099047489 0.37787035
0.034599628 -0.09802895 0.37795961
-0.046397474 -0.097629689 0.37608483
-0.045191206 -0.097618841 0.37608483
-0.043181729 -0.097601406 0.37608483
-0.041574869 -0.097587973 0.37608483
-0.03495276 -0.097334974 0.37608483
-0.033150345 -0.097127661 0.37611607
-0.031151211 -0.097128652 0.37616813
-0.029151525 -0.097127646 0.3762098
-0.027159596 -0.097154491 0.37635565
-0.025166227 -0.097179294 0.37649101
-0.023168152 -0.097188868 0.37656394
-0.021170598 -0.097201839 0.37664723
-0.019165315 -0.097178005 0.37658477
-0.01715959 -0.097146854 0.37649101
-0.015152925 -0.097100459 0.37633479
-0.013148172 -0.097054765 0.37617856
-0.011348441 -0.097237721 0.37611607
-0.0091515305 -0.097038433 0.37614733
-0.007155688 -0.097056933 0.37623063
-0.0051594307 -0.097081631 0.37633479
-0.0031627668 -0.097123213 0.37650144
-0.0011644183 -0.097168244 0.37667853
0.00083544682 -0.097176462 0.37670973
0.0028354754 -0.097177386 0.37670976
0.0048347968 -0.097163104 0.37664723
0.0068347207 -0.097165585 0.37664723
0.008834851 -0.09716893 0.37664723
0.010835214 -0.09717299 0.37664723
0.012839489 -0.097204752 0.37675139
0.01492465 -0.096994318 0.37685975
0.016850365 -0.096859805 0.37694585
0.018854335 -0.096870534 0.37695977
0.02085826 -0.096878558 0.37695977
0.022862712 -0.09688735 0.37695977
0.024868771 -0.096900553 0.37697366
0.026887 -0.096955508 0.3771472
0.028904676 -0.097000703 0.3772791
0.030931761 -0.0970698 0.37750134
0.032861076 -0.097037353 0.37772527
0.034591302 -0.096802339 0.37795961
-0.029135115 -0.095875666 0.37608483
-0.026979363 -0.095564574 0.37618479
-0.025139272 -0.095079713 0.3762306
-0.023146192 -0.095100559 0.37634867
-0.021149723 -0.095109701 0.37641814
-0.019148177 -0.095095225 0.37639034
-0.017144153 -0.095063925 0.37629309
-0.015241752 -0.09513469 0.37619418
-0.013541371 -0.09581282 0.37608483
-0.006991744 -0.095482185 0.37610984
-0.0051551335 -0.095002748 0.3761473
-0.003160208 -0.095045291 0.3763209
-0.0011635072 -0.095079713 0.37645981
0.00083443441 -0.095090412 0.37650144
0.0028325829 -0.095091313 0.37650144
0.0048297569 -0.095071979 0.37641814
0.0068276892 -0.095074415 0.37641811
0.0088265082 -0.095084623 0.37644592
0.010826015 -0.095097363 0.37648061
0.012830099 -0.095139012 0.37662643
0.014752868 -0.095002607 0.37670976
0.016842438 -0.094817549 0.37691808
0.018846812 -0.094835058 0.37695974
0.020849956 -0.094842881 0.37695977
0.022853624 -0.094851434 0.37695974
0.024859374 -0.09486603 0.37698057
0.02687634 -0.09491808 0.3771472
0.028891066 -0.094955228 0.37725136
0.03091605 -0.095019318 0.37745968
0.032948051 -0.095094763 0.37770966
0.034847993 -0.095033906 0.37795961
-0.023125594 -0.093420453 0.3761265
-0.02112671 -0.093011968 0.3761473
-0.019128723 -0.093004681 0.3761473
-0.017263819 -0.09312848 0.3761265
-0.015931385 -0.093384422 0.37608483
-0.0047538262 -0.093363933 0.37608483
-0.0029982999 -0.093057178 0.37615982
-0.001162625 -0.092995666 0.37624103
0.00083352509 -0.09301386 0.37631392
0.0028295657 -0.09300448 0.37627229
0.0048258374 -0.093006156 0.37627229
0.0068222396 -0.093008526 0.37627226
0.008820313 -0.093027063 0.37633479
0.01082021 -0.093054138 0.37642854
0.012821443 -0.093081959 0.37652227
0.014827544 -0.093133651 0.37670976
0.016836245 -0.093186192 0.37689725
0.018840939 -0.093208484 0.37695974
0.020957213 -0.093042441 0.37695977
0.022844791 -0.092818111 0.37695977
0.024854854 -0.092851073 0.37705696
0.026868897 -0.092893451 0.37718889
0.028883152 -0.092929736 0.37729299
0.030907596 -0.092992425 0.37750134
0.032938961 -0.093066163 0.37775129
0.034567062 -0.093127787 0.37795961
-0.0023588745 -0.091741659 0.37608483
-0.0010291445 -0.091481589 0.3761265
0.00094665535 -0.091180548 0.37615624
0.0028272115 -0.090942822 0.3761265
0.0048219752 -0.090944439 0.37612647
0.0068172696 -0.090951793 0.3761473
0.008813981 -0.09096995 0.3762098
0.010811509 -0.090988845 0.37627229
0.012813903 -0.091035336 0.37644589
0.01482027 -0.091094278 0.3766681
0.01682771 -0.091143928 0.37684861
0.018833769 -0.091177456 0.37695977
0.020735057 -0.091082998 0.37695977
0.022840021 -0.090802014 0.37702221
0.024850063 -0.090835989 0.37712637
0.026860241 -0.090865642 0.37720969
0.028875532 -0.090906113 0.37733468
0.030897699 -0.090962335 0.37752217
0.032933872 -0.091049492 0.37783465
0.034554068 -0.091089576 0.37795961
0.0088082841 -0.089320637 0.37608483
0.01093763 -0.089074709 0.37616813
0.012803935 -0.088973545 0.37629309
0.014809019 -0.089032754 0.3765223
0.01681798 -0.089097738 0.37677225
0.018826786 -0.089148544 0.37695974
0.020827854 -0.089155823 0.37695977
0.022831369 -0.089171171 0.37699097
0.024842754 -0.089211851 0.37712637
0.026931355 -0.088997804 0.37720969
0.028862817 -0.088868119 0.37730688
0.030884683 -0.088924654 0.37750134
0.032920618 -0.089011431 0.37782076
0.034538943 -0.088646829 0.37795961
0.013326592 -0.087452613 0.3761265
0.015094184 -0.086858235 0.37630352
0.017032903 -0.087149628 0.37660262
0.018808583 -0.087069191 0.37673059
0.020813461 -0.087100364 0.37683475
0.022818729 -0.087127261 0.37691808
0.02482285 -0.087145321 0.37695977
0.026749384 -0.087009251 0.37703472
0.028841807 -0.086806841 0.37716806
0.030865181 -0.08687 0.37739718
0.03289922 -0.086953156 0.37770966
0.034796447 -0.086886257 0.37795961
0.015983947 -0.085323587 0.3762098
0.017181309 -0.084930383 0.37624103
0.019188967 -0.084990747 0.37648061
0.021195466 -0.085035324 0.37664723
0.023196774 -0.085052364 0.37668893
0.025201805 -0.085079536 0.37677225
0.026806764 -0.0851008 0.37683475
0.028817913 -0.085138582 0.37695971
0.03084128 -0.085205287 0.37720969
0.032873333 -0.084886 0.37754303
0.034911606 -0.084972538 0.37787628
0.036390424 -0.08445853 0.37795961
0.017569322 -0.083685398 0.37608483
0.019331003 -0.083401524 0.37623477
0.021248218 -0.083096467 0.37628478
0.02316883 -0.082959324 0.37636256
0.02517237 -0.082988784 0.37645981
0.027178749 -0.083022043 0.37657085
0.029192351 -0.083071247 0.37675139
0.030810446 -0.083125181 0.37695971
0.032838695 -0.082799636 0.37727222
0.034872942 -0.082879424 0.37758467
0.036909647 -0.082955346 0.37787628
0.038926139 -0.082580328 0.37795961
0.02354449 -0.081286266 0.37608483
0.025145303 -0.080909759 0.37617856
0.027151316 -0.080947414 0.37631395
0.02916256 -0.080994584 0.37649101
0.031021666 -0.08097522 0.37673479
0.032972217 -0.081216738 0.37705976
0.034840714 -0.081205174 0.37733468
0.036974709 -0.080977589 0.37763152
0.038907472 -0.08094041 0.37787628
0.040120155 -0.080560252 0.37795961
0.027230818 -0.078997754 0.3761473
0.029139578 -0.078940503 0.37631392
0.031155279 -0.078995161 0.37652922
0.033179924 -0.079064988 0.37681389
0.034806561 -0.079130359 0.3770847
0.036722906 -0.078969762 0.37737039
0.038884416 -0.078892782 0.37777215
0.040109999 -0.078939341 0.37795961
0.027915549 -0.076874077 0.37608483
0.029122412 -0.076904856 0.3762098
0.03113634 -0.076956652 0.37641811
0.033157691 -0.077019706 0.37667853
0.035184886 -0.077087618 0.37695971
0.037225001 -0.077175319 0.37733468
0.038939595 -0.077003837 0.37763464
0.040093247 -0.076906577 0.37791798
0.02791048 -0.075667247 0.37608483
0.029112088 -0.074889019 0.37618896
0.031127002 -0.074943513 0.37641811
0.033145037 -0.07499861 0.37664726
0.035171691 -0.075065449 0.376932
0.037207615 -0.075143851 0.37727222
0.038754947 -0.07503809 0.37750965
0.040072434 -0.074867576 0.37783465
0.029100433 -0.072870947 0.37614733
0.031119706 -0.072936058 0.37643895
0.033138104 -0.072991632 0.37667853
0.035164103 -0.073055953 0.37695971
0.037196778 -0.073126838 0.37727219
0.038914129 -0.072959222 0.37760967
0.040389381 -0.072702192 0.37790963
0.027891191 -0.070846528 0.37608483
0.02909865 -0.070878699 0.37623063
0.031113846 -0.07093285 0.3764737
0.033137072 -0.070998013 0.37677225
0.03515549 -0.071045406 0.37697363
0.0371884 -0.071115658 0.37729302
0.038732786 -0.071003236 0.37750965
0.040846374 -0.070821911 0.37777212
0.042873606 -0.07046473 0.37795961
0.027883589 -0.068840683 0.37608483
0.029093985 -0.068879575 0.37627229
0.03110761 -0.068929605 0.37650144
0.033128045 -0.068987757 0.37677225
0.035148449 -0.069038868 0.3770014
0.037173089 -0.069092415 0.37724093
0.039030664 -0.069047555 0.37738469
0.040978067 -0.069255665 0.37758467
0.042845398 -0.069219731 0.37777215
0.044859704 -0.068839699 0.37783468
0.046867803 -0.068448372 0.37783462
0.048882362 -0.068464808 0.37785545
0.05090107 -0.068485506 0.37789714
0.052921806 -0.068106733 0.37795961
0.054938152 -0.068120927 0.37795961
0.027876265 -0.066836543 0.37608483
0.02908471 -0.06687063 0.37625146
0.031097148 -0.066917926 0.3764737
0.033113837 -0.066968195 0.37670973
0.035124984 -0.067001738 0.37684864
0.037143849 -0.067045636 0.3770431
0.039160118 -0.067080237 0.37718189
0.041182552 -0.067121483 0.37735549
0.042965986 -0.067028292 0.377424
0.044958513 -0.066829763 0.37740967
0.046811529 -0.066768996 0.37745968
0.048831742 -0.066796012 0.377543
0.050848354 -0.066816226 0.37758467
0.052875727 -0.066847973 0.3776888
0.054906897 -0.066882163 0.37780339
0.056934636 -0.066909514 0.37787628
0.0589564 -0.066928141 0.37789714
0.060980152 -0.066947356 0.37791798
0.062873065 -0.066834949 0.37795961
0.065029673 -0.066583179 0.37795961
0.067055225 -0.066600218 0.37795961
0.068677008 -0.066614255 0.37795961
0.027870569 -0.065234236 0.37608483
0.029066849 -0.064843543 0.37611607
0.031076064 -0.064885192 0.37631392
0.033086199 -0.064923666 0.37649101
0.035093423 -0.064951956 0.3766056
0.037104663 -0.064984262 0.37674099
0.039114166 -0.065009989 0.37683475
0.041128948 -0.065041505 0.37695974
0.043143839 -0.065070041 0.37706387
0.045154668 -0.065090001 0.37711596
0.04716469 -0.065106906 0.3771472
0.049184434 -0.065135069 0.37724093
0.050795965 -0.065150484 0.37727219
0.052827034 -0.065188631 0.37741801
0.054931916 -0.064976804 0.37750965
0.056876235 -0.064842023 0.37758467
0.05889925 -0.064863555 0.37762633
0.060924284 -0.064885631 0.37766799
0.062947892 -0.06490472 0.3776888
0.064973488 -0.064924382 0.37770966
0.066997252 -0.064940907 0.37770966
0.069025531 -0.064960428 0.37772354
0.071070023 -0.064993538 0.37781382
0.073104106 -0.065015316 0.37783462
0.075140297 -0.065037616 0.37785545
0.077013001 -0.064574704 0.37788466
0.07898505 -0.06476818 0.37795961
0.080855682 -0.064300872 0.37795961
0.029458487 -0.063638546 0.37608483
0.031214839 -0.06333334 0.37613481
0.033135943 -0.063037433 0.37623477
0.035057019 -0.062897272 0.37630698
0.037059724 -0.062917531 0.37637648
0.039070029 -0.062947519 0.37650144
0.041080236 -0.062974535 0.3766056
0.043094359 -0.063004427 0.37672365
0.045107458 -0.063030064 0.37681392
0.047114089 -0.063044652 0.37683475
0.049127575 -0.063066714 0.37689725
0.051148809 -0.063096195 0.3770014
0.053178195 -0.06313315 0.3771472
0.054931384 -0.062890097 0.37723053
0.056990135 -0.062871538 0.37735969
0.058849033 -0.062810056 0.37739718
0.060865656 -0.062824458 0.37739718
0.062883802 -0.062839337 0.37739718
0.064903751 -0.062854759 0.37739718
0.066925324 -0.062870666 0.37739718
0.068952672 -0.062890567 0.37741801
0.070991717 -0.062919647 0.37749094
0.073033668 -0.062949337 0.37756383
0.075080186 -0.062981233 0.37764716
0.077125624 -0.063010164 0.37770966
0.079173706 -0.063039742 0.37777215
0.080830321 -0.063076273 0.37789711
0.082719967 -0.063024126 0.37795961
0.084922522 -0.06272237 0.37795961
0.035827201 -0.061262399 0.37608483
0.037023947 -0.061267495 0.37608483
0.039028406 -0.06089313 0.37618896
0.041037623 -0.060920935 0.37630355
0.043046847 -0.060945798 0.37639728
0.045046933 -0.060955957 0.37639731
0.047061343 -0.060983479 0.37650144
0.049071185 -0.061003074 0.37655354
0.051085804 -0.061026495 0.3766264
0.053117123 -0.061067261 0.37680352
0.055148844 -0.061105113 0.37695977
0.057174008 -0.061133403 0.37705347
0.05903424 -0.061074518 0.37710971
0.060977608 -0.061256923 0.37715968
0.062830225 -0.061187722 0.3771472
0.06484843 -0.061202664 0.3771472
0.066868253 -0.061218061 0.3771472
0.069002546 -0.061060943 0.37713829
0.070921943 -0.060857803 0.37720969
0.072966568 -0.060890276 0.37730688
0.075008497 -0.060918778 0.37737632
0.077061862 -0.060954545 0.37748745
0.079115458 -0.060988639 0.37758467
0.081068859 -0.060920551 0.37767839
0.083063222 -0.061175335 0.37779894
0.084887557 -0.061089918 0.37787628
0.086947612 -0.06112143 0.37794575
0.088993333 -0.06073951 0.37795961
0.09104269 -0.060760807 0.37795961
0.093094423 -0.060782611 0.37795961
0.095148951 -0.060805004 0.37795961
0.097201362 -0.060422257 0.37795961
0.098436847 -0.060436156 0.37795961
0.039810382 -0.059679516 0.37608483
0.041144568 -0.059425537 0.3761265
0.043010432 -0.059304308 0.3761473
0.045008823 -0.059314143 0.37614733
0.047008473 -0.059324469 0.3761473
0.049096175 -0.059105296 0.3762098
0.05102529 -0.058964662 0.37626538
0.053047836 -0.05899689 0.37639728
0.055077359 -0.059034031 0.37655699
0.057105716 -0.059067238 0.37668893
0.05912406 -0.059087887 0.37673751
0.061138719 -0.059103545 0.37675142
0.063047074 -0.059012234 0.37672538
0.065004952 -0.059252899 0.37679902
0.066963352 -0.059037592 0.37679902
0.068823598 -0.059177555 0.37687048
0.070852876 -0.058800001 0.37692851
0.072902866 -0.058837295 0.37706387
0.074951909 -0.058871746 0.37717846
0.076995932 -0.058900278 0.37725136
0.07905791 -0.058940656 0.37739718
0.081106 -0.058968529 0.37745968
0.083170503 -0.059006691 0.37758467
0.084830359 -0.059041426 0.37770966
0.086887412 -0.05907084 0.37777218
0.088954777 -0.059105527 0.37786591
0.091005616 -0.059127778 0.37787631
0.09303087 -0.059132606 0.37777215
0.095083944 -0.059154272 0.37777218
0.097147606 -0.059181366 0.37780339
0.098818742 -0.059214156 0.37789711
0.10088271 -0.058835797 0.37792391
0.10281255 -0.058322083 0.37795961
0.051792599 -0.057339448 0.37608483
0.05299658 -0.056950804 0.37611607
0.055020615 -0.056982886 0.37625146
0.057044268 -0.057012282 0.37636602
0.059057657 -0.057029445 0.37639728
0.061067823 -0.057042342 0.37639728
0.063083246 -0.057058845 0.37641811
0.065103985 -0.057078913 0.37645978
0.067134552 -0.057105925 0.37654307
0.069171421 -0.05713642 0.37664723
0.070805147 -0.057162739 0.37674099
0.072849713 -0.057195757 0.37685558
0.074974269 -0.056986891 0.37695974
0.076933622 -0.056852221 0.37702921
0.078974999 -0.056877524 0.37708473
0.081034303 -0.056913693 0.37720966
0.083106138 -0.05695669 0.37737632
0.084933177 -0.056872841 0.37747756
0.086935155 -0.05712815 0.37761593
0.088888265 -0.057053298 0.37766799
0.090925008 -0.057066783 0.3776263
0.092963792 -0.057080775 0.3775847
0.095015332 -0.05710154 0.37758467
0.097069383 -0.057122786 0.37758467
0.099137366 -0.057150867 0.37762633
0.10120659 -0.056775674 0.37767842
0.10289934 -0.056817275 0.37783465
0.10500029 -0.056859095 0.37795961
0.10707013 -0.056882698 0.37795961
0.10914326 -0.056906868 0.37795961
0.11107916 -0.056794386 0.37795961
0.11287758 -0.056545094 0.37795961
0.11495971 -0.05657059 0.37795961
0.11704499 -0.056596603 0.37795961
0.11913398 -0.056623224 0.37795961
0.12332229 -0.056678113 0.37795961
0.12517467 -0.057029445 0.37795961
0.12711057 -0.057137754 0.37795961
0.12836817 -0.056747086 0.37795961
0.05515144 -0.055441439 0.37610981
0.056999166 -0.054977477 0.3761473
0.059009332 -0.054992452 0.37616813
0.061017826 -0.055004787 0.37616813
0.063030399 -0.055019643 0.37618199
0.065047048 -0.055036966 0.37620983
0.067075826 -0.055062804 0.37629306
0.069114722 -0.055095121 0.37641811
0.071054257 -0.055026136 0.37653792
0.073034532 -0.055278268 0.37669188
0.074757256 -0.055025615 0.37675974
0.076873429 -0.054808661 0.37681392
0.078918964 -0.054836914 0.37689725
0.080967821 -0.054865625 0.37698057
0.083037898 -0.054906979 0.3771472
0.085107706 -0.054945763 0.37729302
0.087178633 -0.054983482 0.37742844
0.088820137 -0.055002768 0.37745968
0.0908603 -0.055018663 0.37743881
0.092897549 -0.055031985 0.37739718
0.094916135 -0.055033628 0.37727216
0.09696798 -0.055053946 0.37727219
0.099044703 -0.055086967 0.37735555
0.10113876 -0.05512803 0.37749091
0.10283882 -0.055172868 0.37767839
0.10492986 -0.055208892 0.37777212
0.1069996 -0.054829169 0.37779298
0.10905927 -0.05484625 0.37775129
0.11113367 -0.054869872 0.37775132
0.11279563 -0.054889154 0.37775135
0.11488468 -0.054917824 0.3777791
0.11698566 -0.054951072 0.37783465
0.11909543 -0.054986775 0.37790406
0.12120476 -0.055020988 0.37795961
0.12288096 -0.055042371 0.37795961
0.12497965 -0.05506964 0.37795961
0.12708189 -0.055097427 0.37795961
0.12876658 -0.055120096 0.37795961
0.13059069 -0.054872785 0.37795961
0.13255449 -0.054355279 0.37795961
0.06541723 -0.053419057 0.37608483
0.067191161 -0.05311387 0.37610981
0.069062442 -0.053060263 0.3762098
0.071107171 -0.053094815 0.37635562
0.073153093 -0.053128216 0.37649101
0.074783288 -0.053148821 0.37655354
0.076826841 -0.053177226 0.37664723
0.078866839 -0.053201538 0.37670976
0.081012331 -0.052927941 0.37678787
0.082961433 -0.052855369 0.37687644
0.085043341 -0.052901354 0.37708473
0.087105475 -0.052933186 0.37718883
0.089052252 -0.052854244 0.37722531
0.091021121 -0.053085588 0.37720969
0.092980191 -0.052858073 0.37710258
0.094956651 -0.053092223 0.37710035
0.096899696 -0.053007636 0.37708473
0.098967619 -0.053035274 0.37714028
0.10107028 -0.053080071 0.37731385
0.10276344 -0.05312014 0.37748051
0.10487125 -0.053163964 0.37764019
0.10693594 -0.052781448 0.37764716
0.10900631 -0.052803542 0.37764716
0.11107964 -0.052826103 0.37764716
0.1131377 -0.052840386 0.37758467
0.11522682 -0.052868366 0.37761593
0.11691245 -0.052896358 0.37767839
0.11901534 -0.052928191 0.37773049
0.12113873 -0.052967805 0.37783465
0.12282412 -0.052992653 0.37786588
0.1249114 -0.05301429 0.37783465
0.12701237 -0.05304084 0.37783465
0.12896493 -0.05299123 0.37788463
0.13101751 -0.053191464 0.37795961
0.13296026 -0.05313576 0.37795961
0.13486259 -0.05295724 0.37795961
0.069163978 -0.051574979 0.37608483
0.071055315 -0.051063087 0.37615424
0.073092327 -0.051089946 0.37625146
0.075129755 -0.051115453 0.37633473
0.077161431 -0.051135603 0.37637642
0.078968205 -0.051043008 0.37644193
0.080834761 -0.051045746 0.37650144
0.082894772 -0.050813258 0.37664723
0.084970325 -0.050854567 0.37683472
0.08703547 -0.050887756 0.37695974
0.089084886 -0.050910283 0.3770014
0.091117002 -0.050921883 0.37695974
0.093151294 -0.050934047 0.37691811
0.095192917 -0.050949406 0.37689728
0.096832283 -0.050964262 0.37689728
